ply
format ascii 1.0
element vertex 830
property double x
property double y
property double z
end_header
3.211364437527249 76.191983964072136 87.131238601821764
13.323747394421229 76.440904326673348 90.508090294663234
23.278656227614977 76.671056916638946 93.043436703664952
33.227365120352559 76.495060363020571 92.485709660226220
43.195243956844038 76.535238825444338 91.681176108356880
53.276513032109079 76.316404205967402 88.416808097979413
63.186345119739038 75.695781906461931 82.080127374157527
73.237231068649578 74.608388854640467 66.465603057059241
-33.511055634886382 73.350301813171711 41.166770196259243
-23.464736235830841 73.837332584852675 49.505398962901232
-13.521246279874733 74.348240085151559 54.569725594506671
-3.450938746997932 76.474968989625225 81.385620539388228
6.533345686011404 76.913542812535070 87.864923142125235
16.427423183488127 77.225394595903481 91.242133368544501
26.392316495050963 77.261443143708377 93.087729871669126
36.427059034715910 77.183161537596547 92.612139709688279
46.555290274720214 77.246604738681228 91.049712676866051
56.569649641868310 76.790668795655478 86.539358717522688
66.494595786925018 76.187866026535318 78.222144939734761
-41.667754789943530 72.763584646186658 27.205299815850154
-31.741823016728496 74.130863016384453 42.642980424751066
-21.750117139333184 74.761677888351912 50.936452135308109
-11.627124823604102 76.234695506338667 70.477917475090933
-1.738157113045500 77.128580684541348 82.575941596962153
8.219565462995195 77.614110598277279 87.590920458399012
18.285202774857151 77.825051511960979 91.930119174982295
28.276221195520716 77.940546455624826 93.341828709614688
38.259455037147021 77.941523191479121 92.698973144647738
48.254993647492164 77.874044633704401 90.463255426616740
58.294875569476787 77.526102708336595 85.779604969500610
68.217952178576581 76.666937801642177 76.072051558865610
-39.990913291449566 73.939052094698710 32.628820769871922
-29.903046839125089 75.052840352922757 45.214558233368258
-20.016379997475681 75.587504507451357 51.939973266341127
-10.059436085682773 77.288390013960878 74.812518649229474
0.062400257883798 77.859563904499069 84.256197371912634
9.879186977474898 78.357681594784083 88.400331140353259
20.059535489329257 78.596494333185021 92.469077761590640
30.017399569448806 78.704219727098675 93.520361260063339
39.896402391946481 78.631978417769488 92.647278715812746
50.144004203744231 78.372485440696749 89.966218510232551
60.113086824193566 78.014909214226790 84.754963076438443
69.991076426190915 77.159563429606237 73.161529081802499
-38.760427970959945 74.866452214941475 35.748680498072396
-28.845458792155352 75.776218068000915 46.881545521900250
-18.722029132768657 76.360557460832311 52.501116511403673
-8.678863531965177 78.229797708817941 76.728894791372426
1.248328700060275 78.714369194655674 85.159670145473825
11.323343825548870 78.943937383314235 88.979608384154773
21.254457552396786 79.214816150626831 92.806651006590059
31.222239746110311 79.287080852603054 93.303973160166706
41.198433858855040 79.342414468790054 92.539735431603319
51.267850772174896 79.082975037443717 89.445183994962633
61.208175480098660 78.657334751533114 83.961044990274928
71.243160177465512 77.763962361118601 71.253351317022734
-37.502448136207072 75.881139136070516 38.657138926899009
-27.488637000358128 76.574604820740092 47.912985434633406
-17.561715545798631 77.080867995120144 53.207944625605457
-7.453367017320280 78.854318638667280 77.724290371022306
2.568198914505258 79.374486078039553 85.560992981379428
12.477479499120848 79.768987694444306 89.436934686014197
22.405847798996589 80.004719758600757 92.895332516284981
32.418048315188869 79.897932117021554 92.910890762554430
42.532817406298975 79.908369668492853 92.383554774917371
52.547130469396492 79.806412079607085 89.014995208353710
62.356421194174089 79.256463259222159 82.738454186667880
72.460507219315886 78.158432550223694 69.223618374593329
-36.680064865289147 76.699069820983240 40.139450487080950
-26.825134580074291 77.414318742229469 48.370721074055233
-16.821145427693192 77.801108669124446 53.567039592327916
-6.761166685409844 79.565096286049751 78.110144810760730
3.388096787887996 80.167897448169143 85.820026046681178
13.075193395736221 80.472243439870610 89.827974646860568
23.347076786826101 80.628106600006674 92.750797993116421
33.087474369437921 80.688353175397211 92.755025107934998
43.149621670412309 80.481476336975973 91.921148500166453
53.250267068121808 80.287539181400817 88.711890208350070
63.273058228622553 79.937177059325506 82.104973999678222
73.204164733416349 78.773672359952187 67.165713581346708
-36.954298251319145 77.351154072330829 40.039483625538701
-26.918849515589713 78.099463038689208 48.522822176467102
-17.063728641056006 78.432751407585641 53.691383014236891
-6.989367749291393 80.338809220179925 78.148564269110665
2.901948777200556 80.887418525420244 85.648043490704296
13.031675957579797 81.081808819080806 89.894005405620589
22.928449374418726 81.357279812578028 92.547111891572484
33.048854162942419 81.289068068710677 92.815396639975404
43.068662118157434 81.231921559792639 92.078233666092117
53.041941313966852 81.052322923744157 88.817254711170222
63.089990762616750 80.528092524783503 82.358991151917408
72.947764928046581 79.434045515915173 67.850320210439236
-37.731007436072424 77.942105646357859 39.235842896247227
-27.723333436491973 78.858222282774136 48.494503144328206
-17.794638784894079 79.138956961526176 53.436907833090793
-7.768440049049842 80.939155133479758 77.745331982591495
2.270709343922892 81.447086776455308 85.000778053473638
12.300441177294669 81.756843673495666 89.932497755336385
22.249830785151595 81.962365667226550 92.022439818337276
32.127167727062726 81.965651637958985 92.793957492412005
42.308939745477225 81.977859323352234 92.149427622414564
52.290510540761183 81.727881548962372 89.193967232633341
62.285915545843345 81.296997887285485 82.838203728171806
72.234724512917310 80.242232002555298 69.607244416903470
-38.616854726030510 78.695275924945236 39.102123239302351
-28.517420129345926 79.422390845092011 48.093613612915206
-18.581816477254428 79.849741743235356 53.315931666794839
-8.439372701609534 81.646467494837836 77.643978994646119
1.477955799488278 82.097008959714870 84.451500779462279
11.498104199679322 82.478648698961109 89.775645552337309
21.477760287021887 82.525628560740586 91.459405507113146
31.464689042421991 82.596021874147581 92.958103642396864
41.478992612176874 82.656829130255858 92.169109177890306
51.473096722443294 82.506630895991094 89.571213891505337
61.529756486310504 81.952649910409477 83.613415705075028
71.522863451649684 81.131867236837323 70.961526499154303
-40.262554304376202 79.378290665182220 37.875486660820584
-30.199842775134854 79.973972139775015 46.909953813807419
-20.271282087605229 80.302581076664964 51.820505768913108
-10.254848604095731 82.197544337165738 76.840041689634859
-0.270353474379644 82.634060165189837 82.859483530618661
9.724026851923599 83.134880695329159 89.434083219826675
19.870573262722015 83.144296405172483 90.720439681696334
29.724944045512306 83.302942278881105 93.000240616656427
39.830624944667662 83.276134511596950 92.361922910241731
49.757623397737710 83.094932940086338 90.095061001731494
59.773672583740371 82.828895804864047 85.014863586757798
69.703004313392867 81.948853069862125 73.356746103447151
-42.484127608413282 79.717097501226576 34.282639556575710
-32.413802337895326 80.674135708641316 46.191338136954450
-22.504780811678113 80.928728335757171 49.677233008238666
-12.453146360617797 82.670785887881465 73.230112494914280
-2.488258144716743 83.222859610813785 82.182637024734959
7.420462735024158 83.756381999943230 88.622273183217445
17.465795451361906 83.820531206568049 90.706646685474894
27.461645506497167 83.912296101284156 92.746296154286853
37.400651784932585 83.914966561637129 91.797101129806606
47.389504677576824 83.841167452889493 90.579763584105606
57.439544860350686 83.475416088612718 86.575436499054163
67.443535059365416 82.917725714914283 76.276616519005259
-45.326459376550538 79.916767951014464 28.519810151738362
-35.226501665847010 81.063071427762111 43.466945581046254
-25.176605499071172 81.594943874953628 49.125650480101513
-15.188596776944024 81.964489059018064 54.970197247361732
-5.229234494694451 83.872782101510211 79.947856815152434
4.836272916885206 84.255541761289393 86.959229915420664
14.623667238595981 84.463920700488586 90.684361188099956
24.773525768526135 84.495506583947389 91.639832071861989
34.742176374461650 84.617458995961002 92.557205266183971
44.599287244332913 84.587385223675412 91.476979934781355
54.745674999893346 84.378667748639202 87.757279045468920
64.780531339145085 83.766091520931269 79.712450318143979
74.734195832039887 82.569791612869366 62.184530674956946
-40.029526430043560 81.574323765456512 39.768048193947067
-29.971573714590914 82.182925783502256 47.229537651983755
-20.027403748112732 82.534682445251150 53.092770552445387
-9.932875898414180 84.242852513729062 76.764716937401644
-0.007410741337429 84.687226659494954 82.892905525160756
10.019157769225291 85.206876100710602 89.563617880138679
19.950615082117757 85.200026613130674 90.745382456664743
30.018019388732679 85.283048508148156 92.620789039966823
39.965251414776581 85.343497718371637 92.784426868493412
50.061324807369473 85.160069215102169 89.951908657309289
60.041314214577412 84.766763048315610 84.597685351356759
70.006131287930316 83.987825866616461 72.873437283272793
-44.221867840010070 81.654789002505424 32.641629787609311
-34.252575184777882 82.786092815866198 45.540835234860722
-24.216255214879233 83.150791072640502 49.809662982933531
-14.247791618487920 83.279465450565681 54.979682284441274
-4.343394819350009 85.072471221685646 80.349409060534299
5.761709739778754 85.592283682157117 87.233160650957544
15.812704216983958 85.893400874231048 90.858206274094371
25.717977085345648 85.981835192301716 91.434596612896812
35.730706163472867 85.980835932434985 92.016615474672335
45.786795180107347 86.070016627813970 91.258986572875756
55.730768439232065 85.640170934556380 87.113715800439493
65.717214758627208 85.020445408496045 78.303865197092620
75.719679637193579 83.746940840109090 59.590294055530727
-39.496285767428596 83.002622317260816 40.536352924712723
-29.458209882655492 83.727828682977886 48.464725109033253
-19.421829593155969 84.016783929438958 53.814821148368253
-9.622041910947784 85.616562568199768 76.682360918380013
0.515967130389426 86.017557424470439 83.587533308972809
10.476123672412230 86.463216883887412 89.572225174931248
20.553769394321485 86.496668210313629 90.637229044232967
30.589366360438248 86.693476303238697 92.662170803217307
40.601388042830578 86.661356374382365 92.925593032715312
50.409505064826241 86.388784830813535 89.530050447145484
60.496582630108584 86.084226783453204 84.133249669833802
70.520661356495822 85.157377531154125 72.172892435377420
-45.259800502694333 83.002336267987346 31.691275419843780
-35.301361366168521 83.893036140102836 43.491587249447818
-25.243331519105254 84.450053615807036 50.551160795263044
-15.261980514618180 84.911802395370671 55.299224102598089
-5.274970768203063 86.468945901930056 79.553342234604742
4.706055723411686 87.001219798771984 86.016575899854246
14.777412563899958 87.211640867767471 90.562172388003944
24.751672868923542 87.090473285136923 90.396190762745633
34.713273298909868 87.292441720083204 92.155440743114511
44.794639838046535 87.317691862626646 91.875292592932269
54.777692928572954 87.051424425815355 87.492293308559837
64.696762446872555 86.555091421938826 79.427929755279152
74.896016253699472 85.366752100123293 63.319457510907434
-41.060779775114909 84.346298650003263 39.764635888772624
-30.943946456057184 84.985404527584905 48.149562832798281
-20.939038411491889 85.136752574080418 50.230521571754927
-11.027876327534743 86.749090652409166 74.201302920773884
-1.017306882684619 87.233443766702905 82.472557515778519
9.014987524705884 87.766958524694189 88.398958969577805
19.034324152803496 87.917189051993702 90.907367403582825
29.031475703298391 87.999566235926906 92.235991622767756
39.030631382976502 87.956425552260143 92.631619815889053
49.063835372104336 87.776877336258110 90.093156503988141
58.983050873407713 87.463635137535988 84.851647670341052
69.099186479145885 86.965550628790240 73.985060649804922
-47.233907218762177 84.016527787731590 26.889738024782783
-37.239107957936412 85.354166304324153 42.192246005365149
-27.247870548046681 85.820193671527761 50.006113550457499
-17.261503296205309 86.180149768165791 54.770251418753851
-7.206274665953951 87.746521715197318 77.734704069288085
2.685984572522098 88.101164517314956 84.620176567740842
12.826187137275470 88.509242014636783 89.512295140688536
22.809845553094970 88.482681968218230 90.725916906644869
32.767533398766275 88.685875460496987 92.301382917944736
42.678216917247319 88.671311262196980 92.472861302638464
52.794737932293714 88.352652218776015 88.295714495683498
62.791077310945013 87.970849966767460 81.712560512301678
72.791625111576010 87.088568858926209 67.939909328507312
-43.491357100114669 85.536063426877632 36.791471216892738
-33.551825713897586 86.232964453562744 46.054925676932534
-23.507774410517527 86.596349749172461 50.508967285351595
-13.567255202384302 87.084741963649364 57.646725564901040
-3.485719321162912 88.573017140301047 79.994184581148161
6.564374486490927 88.969344323095157 86.454288016645137
16.531489433580365 89.284694185488448 90.640188851692741
26.508312573160175 89.202659634678156 90.675119237073730
36.515264770213896 89.312667552494048 91.798029900027188
46.500369519774516 89.295021538202150 91.098212882078627
56.524342849047358 88.935671981695961 86.399313986379170
66.428247583288140 88.328354410953111 76.933711286109173
76.516007073094627 87.052199164355699 57.340858020754411
-39.215605416494633 86.717522339257414 41.717854581190522
-29.332317494718531 87.261869249385285 49.191726107762669
-19.232693044620255 87.527167899559302 54.061607403642626
-9.281239309349218 88.910623670762462 75.412650936172597
0.849765634206032 89.511906953695842 83.389516286007364
10.795021654035494 89.708874739088699 88.107626147967110
20.686131406941072 89.816198859469310 90.653878522350865
30.668231715330478 89.971615253291830 92.297726811212328
40.812956755772255 90.074420973987145 92.403179018451496
50.857283947232105 89.721148284508217 89.384879050924823
60.748006721495571 89.399968510964797 83.327636399729400
70.607236046851042 88.653113851496698 71.312349399765267
-45.002847740332818 86.731022609221824 33.514330274808827
-34.922809301282371 87.443646124476658 44.081005092859940
-24.966322971017757 87.907789913634318 50.408404226470431
-15.042925128202487 88.444903531489530 57.197906246180402
-5.061340963473629 89.867731836671581 79.272528704724891
5.024228174080520 90.200958580348399 85.272268087541562
14.981119616490716 90.469821935138484 89.318304300058912
25.081378245781266 90.504347362454979 89.394328389012045
34.989823123339292 90.546125375730284 91.955539174498071
45.066608608890796 90.571227659409374 91.692130877248445
55.105732778060847 90.406730007124153 86.928780158622118
64.892783896685472 89.787807759965787 78.657493443591889
74.991255519279875 88.789477141682099 63.180258687278062
-41.168758335119421 87.884325022070001 40.416032370522956
-31.237154696865939 88.542759320385315 47.659687872605886
-21.246126532592221 88.727369655604775 51.241475613591213
-11.307170768357654 89.907975493471298 70.263870694243877
-1.255457930024185 90.702043990458805 81.859740876125514
8.750940401685686 91.081961918628537 86.889992671846940
18.774657691716719 91.267005242492957 90.027946208213535
28.825795423786872 91.239915508718568 91.602384647752274
38.755104197750185 91.437309826239598 92.076128152471185
48.813988229869771 91.111675297944117 90.024914080097076
58.776796934621352 90.927002989264523 84.599610125903482
68.757946033106080 90.201440959687332 73.923460772048813
-46.910521793808613 87.941145743975852 30.367731393522714
-37.057560603155082 88.819261095373179 43.264363640493762
-27.026444160161791 89.279728612216701 49.640910301812916
-16.944228870607962 89.656522974892297 55.016148127870622
-6.999477414602588 91.058103231505129 76.933523952279771
2.991086107589661 91.580911886490881 84.036764340030359
13.012127903789509 91.709443042649141 87.737535031907839
23.165066241326141 91.810225680663436 89.824233596302022
32.937355273915912 91.876915758174249 91.976715440014644
42.973073983452366 91.885981312930625 91.577911907058223
53.059218395813033 91.751031320443161 87.798446033296599
62.998369958150072 91.221877789021747 80.745813802178304
72.974992062132472 90.305741296984934 66.846801164795451
-42.701703187614697 89.326424946228329 38.507016678110489
-32.876187242071893 89.787498603213123 46.165526619675028
-22.700266295962582 90.172690970988782 50.537283541403951
-12.761142920983982 90.579943749217165 58.339685610722881
-2.727838739594934 91.989034369022392 80.011559611928618
7.227963962247394 92.289366172589254 86.026846252262530
17.193871428168165 92.424578158609307 89.059825831853473
27.270150642099086 92.574723243671301 90.285001174507727
37.228007437565211 92.751661820742314 91.657375809415342
47.266244117253102 92.475668246737754 90.282689003516680
57.275827444936567 92.256831920699398 85.311640437462557
67.164580843526153 91.683697422262185 75.470535398894498
-48.547446199073029 89.022036384365535 25.908966014314949
-38.660876633979747 90.245455313677994 42.727864845157839
-28.504397190818736 90.682033379537430 48.506736517444260
-18.456019506969906 90.915866375537661 54.184041482696266
-8.478121231906856 92.086858929612333 73.117775056336455
1.494235757167367 92.876017085253338 82.716727174643623
11.489208853699106 93.049453539131392 86.885003612799665
21.351509241981670 93.153353424425148 89.370850283866773
31.548434180520509 93.386956070829740 91.595904812670085
41.425505825341162 93.303758419169938 91.330721412912268
51.483003527510277 93.161158975759420 88.533627565002931
61.463854088863805 92.758479705299365 82.026010783813277
71.575131221576456 91.990763308676691 69.514803437759852
-43.844087029009799 90.440088306849105 35.381389185258080
-33.781711281354596 91.207318831937698 45.804066975448066
-23.779542106828572 91.419743180510082 50.118158003956594
-13.787928038616810 91.991726356429567 58.062505886526147
-3.831467252243650 93.272460052731617 78.628235318818469
6.370950247653080 93.485719436938510 84.891030809257103
16.270198722649578 94.010686410010479 87.717549176434076
26.248350619680476 93.856263658826393 89.425200357988658
36.254821015586039 93.923064768784513 91.430386738229572
46.149001862504448 93.948043651698043 90.321407668614029
56.233541613910447 93.589438141673853 85.714263296695776
66.228900117759352 93.102387369626157 76.155448590074641
76.189135834710385 91.874023452305522 56.310746206539200
-39.564520908382683 91.626152134151624 41.841918805605516
-29.533828618388984 92.075563186805070 47.658988001472643
-19.467445036949172 92.386918408068951 53.108472248653314
-9.445277021125333 93.335871076101256 69.335947212308554
0.396254009174407 94.037661285441558 81.141173308743916
10.421509198256956 94.297070718899803 86.089454358571615
20.486731128156109 94.494517401806988 88.491950215863241
30.502503971083204 94.611065030703159 91.050827332436725
40.465253320376902 94.678806650585614 91.132292672498309
50.505112067275604 94.456582910825503 88.416221355569263
60.449876127010576 94.109661338356275 82.671455620230901
70.509195587041205 93.442994836753897 70.658091592231600
-44.245922378396799 91.675357494239279 34.643710019211611
-34.277898636421249 92.519729041777737 45.599204473129227
-24.238215469505086 92.862403678454143 49.917122038745681
-14.322183475057553 93.360364592152479 58.084131934197515
-4.234371582287950 94.329219797947815 75.711457653100624
5.662202324454135 94.852619229800382 83.622895089049237
15.735739008777211 94.980799934638014 86.513264159037504
25.761296806519461 95.157295621943760 88.927077710116009
35.790139423951757 95.277691937989118 90.738664760704793
45.744021700792416 95.306124819780933 90.020653164363040
55.747978473829946 95.062022469017720 85.564788650919937
65.765568861952303 94.434805762643151 76.491189933765057
-49.063824374073995 91.552708948321595 21.658243236917333
-38.902066993359682 93.044843227407426 41.997914198478320
-28.962748605123021 93.423938237741666 48.547601655524744
-19.082504503177478 93.840691027575929 53.626613838076302
-9.001626767425066 94.385624239705663 60.902080443451425
1.029782369796557 95.373941269189316 80.251029521133162
11.017004653022424 95.729660962038025 85.371510206934460
20.903846050155629 95.766776677010242 87.436602399010894
30.946791041925529 95.964732156158689 90.621648276833170
41.038536982194124 95.985167645494059 90.555155822807833
51.011009235649567 95.782799702944871 87.832292791874920
60.915162499657704 95.404990434636488 81.696217840770444
70.993639879218520 94.710676791422941 69.284392730061185
-43.221679383797898 93.158805408501649 35.908590329064154
-33.279571307987069 93.918018940835267 45.425567164075353
-23.317013124381290 94.198069941993452 50.101301999776268
-13.237304745254869 94.763673380000355 59.580138009136633
-3.188016015382440 95.780509393978221 75.251184847961923
6.751434468464553 96.274913805745214 83.495880966746014
16.783609927231314 96.351710543186996 85.450557678386929
26.750799889818357 96.595951431557168 89.231847217897027
36.728630566816406 96.621286812367146 90.274750179799227
46.738908252350086 96.527575438702229 89.177468603416514
56.810135581104113 96.313894388020401 84.626676834564307
66.807728411188819 95.812436399974530 74.565413966263137
-47.584037300760912 93.491743382893517 28.711976246394290
-37.483093029963577 94.429842597566477 42.665578741066930
-27.517009520478428 94.900655043061292 49.200289637418869
-17.529689957309429 95.233428667964432 55.190689273690005
-7.556322651265724 95.810297236882235 62.790201940071370
2.465923499601702 96.750297829137139 79.890504356112586
12.529741437407697 97.068133035318311 84.359637168341024
22.565095629353213 97.213212051514745 87.470672439997529
32.465304899710233 97.159805023328659 90.180437156804004
42.539335451352592 97.190430998713410 89.850572255640927
52.509378116418247 97.179886878308153 86.595172747450860
62.462945278534292 96.599815219163091 79.270615044280689
72.424014025355007 95.843375217093552 64.535632551629107
-41.301286191928398 94.775193307221755 37.539474164217488
-31.256157842745345 95.506112858641686 45.945242330751555
-21.262104568623052 95.789361542548747 50.849878822900749
-11.296987249990771 96.179001310162292 60.236721794201550
-1.320806865782305 97.170037752681267 75.016314423952224
8.724905018756845 97.578278095738298 82.749031162446030
18.717813175615643 97.747525410314623 85.608784808485311
28.805473423573158 98.022806250334867 89.665034658686182
38.768555264680622 97.945530231374718 90.051972864222179
48.693977071030588 97.750051203424633 87.827342896375526
58.731483771139814 97.631973020355346 82.529537381875372
68.785418173818272 96.926093954684262 71.635188116781208
-44.448273307747826 95.317722836469130 34.691460292410234
-34.514709027288554 95.990764260954677 43.693600513252953
-24.457254940370142 96.344281074541826 49.689862810722111
-14.449745537104100 96.909880079223370 58.030133564964466
-4.510229917803430 97.267724557147702 64.526723112421280
5.952692087935042 98.124411119746412 79.798760518752374
15.973841168685281 98.332336395977080 83.321551324421151
26.055288063596269 98.511159124297279 88.620942264891383
36.062998761459298 98.566146523817849 89.435138845689124
46.019088309269293 98.558339307335402 88.579262909747612
56.014022357211573 98.374167523369522 84.227709503734062
66.080967170197226 97.924793162558416 74.698493386498583
-47.125929780606555 95.570730878963801 28.349594559201929
-37.223434637992597 96.458646102449393 41.570318249401140
-27.236385931904106 96.970268941313961 48.984172268560876
-17.139409646222735 97.400072008507976 54.470772384341338
-7.245235655061491 97.861233738338257 63.376473632928466
2.792962112363056 98.666425033060392 77.363092256790125
12.741649121282299 98.825263812928256 81.095525970761955
22.654946664596714 99.171710117894321 87.134405283226812
32.801583597091174 99.267295742717948 89.253505500181888
42.761238797383761 99.366480566079517 88.724710160370577
52.757432969271314 99.033183416697540 85.720489105167957
62.799457805231064 98.697235416364464 78.057319717911611
72.726444061634808 97.881552614760025 62.879863116034336
-39.883720859310230 97.041113623583570 38.366194914715173
-29.976150017567427 97.529742444482963 46.784412447753525
-20.038753584362972 97.796828246220727 51.308392394192971
-9.941817053771139 98.351455700921960 59.904998856659432
-0.010145052353537 98.777248022686450 67.454280984499221
9.935130168350740 99.443726619493887 79.542743883101863
19.993242214865884 99.821493549946254 85.785341063901640
29.934071512563470 99.881582572886344 88.929486901628110
39.965349797527196 99.896363075390482 89.059250349221443
49.978024932108212 99.878250972090925 86.632336820206717
59.976107205553632 99.502633743608456 80.316595188198747
70.032933386812758 98.830161607766144 67.944289426344952
-43.841757957869731 97.443992707436578 34.738381457481005
-33.662043857007774 98.052538455933444 43.417758609808757
-23.754232035467314 98.458572686132698 49.672226224502218
-13.801067362990738 98.927972535997526 57.760385465305561
-3.707688109441514 99.362678620421249 65.159354353367121
6.295749385368582 99.761138045514784 75.757219842757408
16.105194133870356 100.243747476361634 81.530409162859826
26.239914565789530 100.528707026405399 87.899539212905736
36.172144005678781 100.644625615653794 88.711399030474723
46.256518372925242 100.684600013818198 87.715985455788612
56.322206370524057 100.406805510489974 83.219284370965568
66.244155749888606 99.797427079857158 73.345348207612091
-46.443314787102310 97.668513749158890 27.974079140491192
-36.563038163317714 98.665405547147017 41.088808498114375
-26.527251807162795 99.106005152217605 48.297426820159743
-16.488615000804746 99.459636944560415 54.361358907286700
-6.442190717311560 99.910776607140079 63.335676546506399
3.451537678802759 100.301796460436336 69.714045481570508
13.534142873939583 100.588474349956343 77.211171864419114
23.531034494274994 101.152369977482508 86.910782764748873
33.602599752942012 101.317745987886511 88.406092781198112
43.523583768885338 101.176217150586709 87.759971172417480
53.547050290665354 101.115846710901366 84.914842591040355
63.547758668829040 100.518234051785669 76.073837705314219
73.520609036391363 99.493150784824707 56.099386320632100
-39.192337942284482 99.229570748303814 38.621582859798224
-29.228773573771452 99.702689749975917 46.521108375303903
-19.186574071699098 99.889423334704702 51.101665229505613
-9.295947603625647 100.478276838419049 60.756826198891517
0.915681138896002 100.944482990932357 67.508085670572299
10.883052085237596 101.254397708758972 74.724747830652461
20.714921051447725 101.873891471376467 85.161082162851642
30.647534024273583 101.909863255662017 87.806728650448406
40.779778248152304 101.895476697576981 87.527311048415811
50.672340502325881 101.841155677571933 85.582784826675720
60.651414379418142 101.422971965579890 78.531117742084135
70.783181449898436 100.667126800280116 65.438208702516903
-42.041127958691959 99.617682510526308 35.697053985307868
-31.942994866946737 100.270138278673485 44.067374086666987
-21.913794334539300 100.612073423530632 50.225762346374758
-12.022361235804901 101.050571278954152 57.807322433079356
-2.013170076773689 101.520285799672720 65.587159334518432
7.895594183714459 101.747552177551640 72.536920014687297
18.015662702137398 102.238895843456035 81.474891689668084
27.947629206909742 102.641057686538943 87.248821524020371
37.909009415717527 102.591378514440649 87.376550289942841
48.013496250224861 102.506532525945318 86.291509815364194
58.011709305712920 102.334390917961059 80.928297093495502
68.093678735589876 101.541757695518868 69.477866200624362
-44.228457053470514 100.233826453593935 32.525870151186218
-34.208846663526472 100.738755195504368 42.854990097517891
-24.269998779386558 101.218623409216633 48.770576398062886
-14.144779071345960 101.563531528034659 55.066474211936573
-4.228024577820478 102.085961281010611 63.878710414335657
5.652692694867214 102.352626880944754 70.973617125316622
15.764462244384443 102.805784642542335 77.468050248654379
25.730388928911857 103.139527687901463 86.185471716468172
35.887067432695261 103.186235456008788 86.787855012152079
45.740770041950171 103.169834193965826 86.441100785008572
55.691100089318063 102.981615489007254 82.621439561960500
65.706251630063733 102.395566007238571 72.067066430569369
-45.941164138171672 100.588850304217758 26.641817681855528
-36.140707156472871 101.425796630544980 41.086508517339091
-25.975283459236429 101.782683600641320 46.980833592866354
-16.047462398898197 102.151472525285556 52.899850148087715
-5.989876840139876 102.636844889076855 62.904121455951618
4.033230156244034 103.141252625150912 69.507225897663275
13.921411186100707 103.340698548583504 76.344479656812808
24.101074045741278 103.853058289023053 84.716058646794096
33.907340593872448 103.851872020286862 86.296053389223914
44.021001871438294 103.890938589032629 86.682937524130338
54.090259056673275 103.799062092715005 83.321555149769338
64.009593555484159 103.297495044079540 73.751957482925349
-47.779889278712091 100.889976740760460 20.238915438598621
-37.865966439926567 102.071214756992958 39.437981477119195
-27.735506821908494 102.498641274822447 45.604083139435652
-17.695264944689249 102.685981686228530 50.876474354566675
-7.683288219579025 103.301272413640135 60.802367115408302
2.218400127534483 103.691668230660710 68.256674085678313
12.295755224566694 104.100465505209073 75.751040111203778
22.279131567355567 104.375882628347100 83.146170485009762
32.337643088476696 104.593635851231653 86.168047799485123
42.336382974230958 104.567645264002564 86.747813540674329
52.363716284693197 104.394262505031719 84.004892332306170
62.230528290426989 103.951993128862526 75.335972712182709
72.345890527790388 102.991377117461980 54.923560237276860
-39.420866017738120 102.728842911567838 37.425868580513523
-29.506140727725942 102.971105709827114 43.814216383627510
-19.462715884595603 103.400306262228327 49.957091397051514
-9.521849369458876 103.897449848897693 58.199748626572308
0.497396132024886 104.232555808141868 66.387890153617008
10.482072750557670 104.607153263836523 74.786750450112109
20.585822428883642 104.933373692716856 80.551869910663981
30.523630056753891 105.235221753073418 85.612957592075432
40.446278483497487 105.195858922356109 86.423141039423029
50.517136541800660 105.064892534133662 84.324702342115472
60.519633127371293 104.731338634865978 76.886496831559072
70.472614438829623 104.098896666103556 62.349029351569136
-40.660843916688194 103.104824357784423 35.303281182671512
-30.729645024060311 103.733244096213909 43.163666083495045
-20.770734197072208 104.103092301143434 49.717874580651980
-10.760040157649243 104.521973383674748 56.534647190725124
-0.735788456201252 104.830588234221594 65.043526177468834
9.132204762025960 105.283318153208029 73.750194601587850
19.248518376883780 105.465702364574540 77.701856032673859
29.251691327963588 105.907645900744484 84.905568946660580
39.254486222113258 106.008856869407936 86.509775716824706
49.228420730884800 105.876980317389439 84.381566707528151
59.217663117169863 105.502925226036311 77.780598785717302
69.206021731771358 104.837345409498838 64.122005569951185
-41.477687567124143 103.861464138137180 33.421762242943771
-31.473296670702148 104.397890410695226 42.822592521740127
-21.510201513940903 104.722702871859113 49.306986179162990
-11.493705990544816 105.091542672143405 55.598510973663629
-1.516551645743090 105.595584958212058 64.685208017666483
8.504030128391245 105.888364616527781 73.263953861680690
18.505186411572634 106.280810343888589 77.254315595752047
28.479970427845288 106.506455526280604 83.798301591340831
38.536898960819642 106.576345054818617 86.292099527690013
48.492291663288427 106.501526005108303 84.442419162554174
58.480469804391326 106.202822584473182 77.962909755329733
68.533244120165364 105.546336787777705 64.610712287484645
-41.792137130799169 104.549973693638577 32.188238773626018
-31.705775486127894 105.031802091505185 42.386705753139147
-21.636239564386958 105.514475589295003 49.006848579421991
-11.771725320296600 105.668341598286503 54.709852871937322
-1.699759979781534 106.198388604535907 64.208520122188787
8.088438558168312 106.656211205310555 72.909159618631008
18.276822787355229 106.772456593466529 77.105680207854064
28.200909060386120 107.110067328065014 82.989237084667721
38.238351497578911 107.392630071193125 86.117673330769790
48.219661659005986 107.127621852431048 84.209837787961476
58.204473864071772 106.861025301755760 77.841902400669397
68.219279400849771 106.226532538602186 64.146864420846541
-41.564852054299102 105.151993444678297 32.128311298737351
-31.492790088761684 105.785645800077759 41.978490442108097
-21.446873609696752 106.260901961063723 48.729137733528667
-11.491927176016294 106.491120825832326 54.512899701590662
-1.475490994135177 106.971597670259499 64.073263401829763
8.479928488610261 107.228609284104692 72.968007049754235
18.638362266560783 107.463732577258540 77.118613499958556
28.523459940090270 107.769240605654488 82.499864041627092
38.512825576461772 107.965682846838419 85.874053893597264
48.428344921918075 107.825630870950505 83.599152831039746
58.560396083642992 107.527682064069907 77.202187962620656
68.404036116773625 106.746734737495629 61.593970348412824
-40.679296527885519 106.000999520950160 32.999587066792252
-30.718400171776334 106.483040451554075 42.112438975677890
-20.730440321417117 106.813276828699514 48.722431966254746
-10.717515345370590 107.083777153804206 54.577244053113276
-0.748280209845984 107.582141495384761 64.211951880157216
9.238855926116344 108.063436943882422 73.149261614549232
19.329327839046712 108.189054462869777 77.461030936084853
29.362931313812211 108.386441933502923 82.321922907714097
39.404906081255923 108.558817425795098 85.484984319205665
49.297202432279299 108.445938514437287 83.185940055852498
59.212601233243191 108.131065184802267 75.580485064780106
69.233242326641772 107.237396831562094 56.932658711618856
-38.064322078448619 106.861189783394309 35.885104054885225
-28.057084418240272 107.245047440999784 43.001745095335394
-17.989571837302822 107.563729723733587 48.700134348207897
-7.971377138053791 107.912272409143952 56.325586617238713
1.928025663768042 108.398231907936250 66.980235065751614
12.048007734407111 108.854093228522459 74.274017987514583
22.006968929413954 108.969208346258071 77.826442730771532
32.115758635270495 109.239032011406465 83.155953895349683
41.991761437061179 109.372346289431661 84.895235901682113
51.908938893078485 109.047483029335794 81.749046786117546
62.067010363928716 108.607419076045986 71.377331314492039
-44.799530921815197 107.179473034517244 28.884988063637088
-34.747324014781817 107.620391837487276 37.904978915501886
-24.846313796674647 108.111064574774616 45.046902880798697
-14.774475042553151 108.264888017605486 49.758217569408345
-4.669288782083912 108.672506357327549 59.688643084892242
5.235276577648706 109.233743151610213 69.799254571673529
15.255870347690681 109.507302057580745 76.063195737315638
25.262183202881410 109.728767630283670 79.487510190697563
35.282762736577702 109.871490494035541 83.660155383896921
45.226516566033048 109.889618869118465 83.767904744227721
55.268840927751391 109.660733390002676 78.611100368921072
65.227240813456348 109.100924549726017 66.128135605336340
-40.949337392933678 107.918176178263323 31.711440587582398
-31.022829550964559 108.574298402212932 40.191642114782724
-21.012264069413835 108.902178253990499 47.027957810820851
-11.019790046299377 109.190929401731083 52.631251628457697
-1.016641527278464 109.598509872750640 62.979507934030671
8.953034949670005 110.037742173388537 72.022014063470721
18.973520704454263 110.280366326219763 77.209331702394010
29.122939441476937 110.485081212777729 81.243216964058391
39.021878604642204 110.530446350224111 83.944074820353123
49.013144767668535 110.521395476801658 82.257012275768773
58.914777548088431 110.082236308519086 73.942735743398018
68.969729432736685 109.210430359240391 54.458903353027068
-37.331113755648865 108.823357896078576 34.927794272264052
-27.203439399823807 109.203590066680292 41.831963541102830
-17.294246726933356 109.572047959602287 48.002297680675312
-7.283525798142077 110.023593861881082 55.091890504403374
2.857306587819020 110.514976525030178 66.598828473148671
12.712656483518158 110.818158099715816 74.273522414972803
22.777914130466865 110.898913498986516 77.745018196623974
32.734598511532198 111.177807600734155 81.915009227194815
42.694441245516870 111.209711145836096 83.717511466441778
52.737213176319109 110.924982337208647 79.692313332756711
62.800178437259881 110.557211845294447 68.014202404643811
-48.128171652448557 109.481610182989613 32.733164744346197
-38.063609692824464 109.557215288109688 34.097933396970774
-27.898460411137748 110.019281065218635 40.732008763901490
-17.894373451849507 110.276371712413095 47.215026179238954
-7.979858315653405 110.628727254733306 53.572739363425619
2.075251265915760 111.096911965389424 65.056902412740598
11.994474128263089 111.411759323245036 73.568492666612102
22.009781005087380 111.675235959108477 77.639046577407683
32.069184305924558 111.804381035443186 81.469143529384681
41.914522237982808 111.899400436872170 83.552220685662533
52.003500904099823 111.740412005235513 79.799870195399663
62.065197226242084 111.316327227857201 68.322478213445891
-49.764471835458082 110.264438367384514 33.619994942397589
-39.700368301557113 110.226872361744810 33.066028542942455
-29.733837100093734 110.500379425265507 39.141473522977847
-19.779431781440458 110.968626533926596 45.991270694728328
-9.778218650357815 111.132551790874857 51.771727318920760
0.206394867861331 111.706718888709545 62.565081999635140
10.273699448967424 112.094467762657914 72.044142147141329
20.239955278072170 112.296146444437838 77.048124596216439
30.272139258022200 112.454007346866689 80.660168284664479
40.355334436481890 112.559881280049481 82.922314155088515
50.239773686169826 112.603275377048291 80.424651695548278
60.343990088005611 112.035043866215148 69.976100804113784
-52.080114364315634 110.993084142923720 33.943139079935754
-42.014011432159656 110.997640591754262 34.946456699519509
-31.923853128210819 111.117649587691304 37.119656444493337
-21.914521782673852 111.565756742847398 43.829668133160396
-11.959699391348567 111.803086415534082 48.997109889022049
-1.936748279077045 112.274768390215087 59.980702772759010
7.991302557639154 112.698848765058870 69.608106961868614
18.018156466216595 112.949726793274579 76.127626049191846
28.089772289005811 113.125080293513520 79.521747164737221
38.044912677134292 113.235716512112404 82.107269901978398
48.030878531199662 113.305271030181189 81.001909932090811
57.938905014163588 112.683597272991037 72.026842265438788
-56.245206395272270 111.459618955931560 29.771027511655824
-46.229715602368280 111.935090713567945 38.894472957007039
-36.243316437423708 111.665643148712491 34.936466593808227
-26.264268290571142 112.046958243464189 40.276845049762542
-16.246227879385270 112.315563907579730 46.522836075499491
-6.344697098140029 112.693117184842521 53.233918900146989
3.793162736222534 113.216243077028082 65.487732915398979
13.750125490646903 113.635907595858427 73.843356239107123
23.749842566263130 113.815894974323726 77.542789019351019
33.766869422948787 113.816751915024568 80.915419218076721
43.651857804291240 113.805874121310168 82.003191731454919
53.665231872169642 113.714408855816671 76.592835369875516
63.668174373586666 113.063052974067602 63.069969431279461
-51.500494564157727 112.613187630456480 38.647582224180567
-41.518870616118114 112.549764105711887 37.452166133758190
-31.444286885330875 112.430636772020733 36.588709144634514
-21.494976711659671 112.971230522388780 42.621359272225838
-11.494730765924826 113.110433000900414 48.151246129709435
-1.579035708965784 113.631439834615890 59.093495159052686
8.482063908885102 114.085704052210616 69.486573244739503
18.509942556944566 114.295964298275678 75.746531555969469
28.544548056372154 114.360298228153397 78.865721492899169
38.586117181661351 114.644511682390672 81.429866953959007
48.463927269573311 114.493222682982079 79.553144313777437
58.499067062931452 114.074250470457059 69.775773709955061
-57.282907048575431 112.852524122216479 30.893792940483575
-47.385553087189216 113.468893171154178 41.195873287095516
-37.322573523479882 113.062478059225640 35.627643329894283
-27.351500794731514 113.378125935758874 38.467867607983415
-17.253926755473334 113.748570940133234 44.763020459198138
-7.236525922524359 114.024490310297423 51.175071867337238
2.861747456561376 114.284979958739882 62.853966153447182
12.716623542924406 114.894032177755875 72.638308115131821
22.780889439714706 115.062162297276259 76.572795580441124
32.705734973600322 115.221687975923004 80.328035804259272
42.725741546179329 115.168823277682762 81.078968559374047
52.720920886301279 114.969237596564000 76.105964756536338
62.739683761512005 114.478846457430834 62.965308641069065
-52.913680125585024 114.136952827657097 39.527626130308811
-43.047695293250889 114.173267403386475 40.426664320436252
-33.009691656991443 114.036415129922389 36.114048527507428
-23.057001565050893 114.179970526012809 40.490864220792417
-12.946450384526127 114.466039208950860 46.469631163002525
-2.977425202041196 114.845098057664828 53.235875901833310
6.967635277171014 115.303596973807089 67.207086122374847
17.090719739798974 115.560972233226849 74.385397203909761
26.954372300974985 115.851341286638871 77.277702059082628
36.988517361474543 115.848918417810424 80.476845382936006
47.091155453713903 115.700656728525701 79.488919652883624
57.057897439856802 115.365115062828096 70.228255456468105
-58.765985354324300 114.350508431614458 31.477372662832710
-48.658866099521681 114.940393485146359 42.850730610266844
-38.708293999896313 114.884953961020358 38.209606449543656
-28.735394481351847 114.700231002597548 37.755604337996353
-18.698495110312500 114.973450949197158 42.365364851592325
-8.849124656695686 115.299166976751039 48.376402106607571
1.234234798096562 115.702179743979954 60.241946537057842
11.232307481911317 116.050709595832430 70.374904911218493
21.159834257201059 116.329395942927931 75.465536161485730
31.242380963540427 116.663391052595571 79.077542171471933
41.234636059205705 116.571958192845685 79.712718206220259
51.349329848603354 116.346980612511715 76.166692443784584
61.274789949860505 115.948136001057506 63.221809629947217
-54.569255163029219 115.434873113077117 38.706498556547672
-44.459239220876469 115.647205188516693 42.485550792078442
-34.403879987878810 115.384752476888252 36.621501835326036
-24.474880336003118 115.551497076844953 38.589507783028999
-14.527813639727494 115.826994615708003 44.818418267718080
-4.538143476121833 116.050752873311438 51.198753784205017
5.529566508752196 116.733660711639345 64.570055061966627
15.525952185642510 116.845952973995352 72.841182846681022
25.393251187661836 117.036943347094748 76.403420535141308
35.426097108258659 117.219755864116848 79.814101201902616
45.482022551676231 117.071518619450586 78.816353821826269
55.544832147110476 116.847434541491864 70.395074926743376
-59.765524837417338 115.779050322745121 31.538164635221886
-49.732925417923909 116.535699391713777 43.689325723372903
-39.701462196024593 116.302423361990876 40.054136897043193
-29.772587189243346 116.188331241332278 38.374291101485291
-19.694427111519317 116.312895350027944 39.974964459319295
-9.762923104738647 116.674638660355242 46.559247383051890
0.326913090857217 116.980218873428043 57.598422859151881
10.119192514752292 117.438862878783397 67.957310067324457
20.283301352999480 117.654372394179745 73.890225080922690
30.197264283523356 117.770275287952913 77.882131341078178
40.244744702648838 117.924630364753426 79.029257072081123
50.225275802359278 117.707628129996635 75.432226923587791
60.303606526281428 117.243113679338521 62.518969321194788
-55.462666420994182 116.906563077964037 37.418792005174495
-45.442852182162305 117.240529480819646 43.807259968757513
-35.431683904384840 116.964230704516694 38.242969798778653
-25.418681830668589 116.971476248901041 38.086201458860792
-15.475665095889797 117.078417943995859 42.748958417797063
-5.549058935963488 117.463339422556032 48.557010973992099
4.393535574699762 117.964595911097263 62.437904415446553
14.478357582808515 118.277894234792555 71.364117714295148
24.502829797340095 118.449831758766763 75.661262774103335
34.474131431977462 118.520993210986973 78.963297145309454
44.513836180593039 118.465619285830655 77.664149434582512
54.603994293974345 118.246973913644624 69.533109163944687
-60.773387594667369 117.177334103879303 31.215020707486101
-50.830373051449698 117.786598355136164 43.863199949769239
-40.777713973612862 117.867625717825675 41.728698631180748
-30.680819883013072 117.687757265248180 39.367761254720719
-20.682736973339178 117.643233810438971 38.234467319023544
-10.749199839150554 117.996420179662792 45.091167811439789
-0.801761350794928 118.221788123136818 53.276885142993962
9.259395461591247 118.773357411586048 66.194263886094532
19.249868927658810 119.002661108431354 72.667037126030095
29.234465352770133 119.120285746896499 76.792584475544118
39.277555600425266 119.201517372851100 78.361382968771437
49.235187976606539 119.128584697733146 74.550366222763770
59.213771810758097 118.551213453687879 61.560937919157098
-55.568788959378800 118.319992335017744 39.846677353600015
-45.479302092461410 118.678523480550666 44.629772402312646
-35.398916705298966 118.411783054795876 39.047601801086010
-25.459164270074318 118.252232087369066 38.555051635994147
-15.550003974301088 118.355842881071965 40.808825353915473
-5.528623037233416 118.733818428420108 46.943617167338424
4.559652830754244 119.249308160050333 60.876602435535723
14.463352925132666 119.612797042092140 69.843605398533114
24.574412153204879 119.799695494909741 74.891485634098785
34.547757124642153 119.926302835968073 77.763427273098287
44.438355385391937 119.837349207964749 76.374595599681228
54.549711497776343 119.478043298997676 67.391078070053553
-59.263182309549485 118.786726866544058 33.533405045643285
-49.214217296111066 119.339462256026877 44.726109591284171
-39.178932749704316 119.202377554076421 41.208263917767873
-29.269081150691768 119.107586754920703 39.725190862326059
-19.233716472795749 119.151922827208978 37.781787608817091
-9.295531030421271 119.300008615177163 44.884352991007219
0.679430595369531 119.678310710601906 53.163593718901197
10.787094993221711 120.132598144005627 65.980950783628785
20.765274657253361 120.386640827390664 71.945453495058956
30.728541813487304 120.458250708736387 76.075984811205217
40.723702252917199 120.486264040317209 76.942280924799064
50.792247401394093 120.307691180644838 70.647182301218507
-62.977462740295728 119.150233829523799 26.685709871134097
-52.941998559885597 119.995639617530315 43.092174635093485
-42.979015491798158 119.993435087860561 43.776861732818638
-33.035408081400583 119.833383909631024 40.198150541424312
-23.021707786141388 119.728992724021367 38.602805096046211
-13.061244531539540 119.938685977256654 41.523067110655511
-3.068296700776691 120.119631273055035 45.956382984936745
7.038024788256305 120.734410483740291 62.144769674087044
17.020933999223328 121.031364967534117 70.048262933736282
26.921771551013581 121.080915907709922 74.721946651196546
37.096822727385110 121.241505864450531 76.702075959522048
46.969775524418793 121.108504907852691 73.083608134045576
57.039508124210997 120.708149644858750 61.027448748562790
-55.732313583249265 120.538107060505681 40.196064137814069
