ply
format ascii 1.0
element vertex 830
property double x
property double y
property double z
end_header
-25.764052637826662 45.116187674277469 59.783008819344488
-16.562391002624359 49.298792898577915 76.261081687970844
-6.854054756309036 52.839660171048109 85.199641401614002
2.334141649567671 56.336824018974127 94.898086364554516
11.998792653638983 59.117648816151330 96.390953943308290
21.542458734990824 61.742090245760501 96.486063773337733
31.253639645802835 64.345307844869950 96.509847597366416
41.026543064284091 66.966778782491673 97.067807852826064
50.532474904661356 69.924671429789768 100.813553791905818
60.242281421131516 72.317227529686548 98.715510967736819
70.284645535608774 73.432907033642124 83.685570292869528
-32.273007311761305 43.557760925098620 54.939736024652703
-22.740800414664832 46.806468825494420 60.792979613620403
-13.447718093749060 50.841885242705224 76.813067431884832
-4.297248965438449 54.784438564220878 90.320025809768495
5.250121191657085 58.019027356075974 96.169947388871506
14.911488764999978 60.646024278648341 96.588121476612571
24.636726218252988 63.195635474206647 96.405252769671335
34.314639926814159 65.672079940468592 96.298090714907289
43.768541430956027 68.611153393142459 100.086102395263509
53.495857764265679 71.301988890954860 100.897899397663707
63.276943959045177 73.598331442253922 97.075313863285160
-38.406274819264290 42.443604339573511 51.556779766881064
-28.879121537805922 45.484930331932738 56.760752871031819
-19.457979849697175 48.937479000119900 67.469608788513085
-10.245059380541711 53.073546761740069 83.029822770249069
-1.004527409617061 56.779576022582617 93.558760695165105
8.631222059269767 59.867548425285129 97.534286171702774
18.302845465743239 62.531497995243328 98.549803124334488
28.065364793031886 64.845312555935422 96.922551119421584
37.622923416421145 67.289117237986034 95.544647253954409
47.243727584354062 70.339131943264277 101.536173089679295
56.929140869318843 72.957043573703771 100.667656819926620
66.842459983551095 74.736743663259347 92.748344018596697
-33.963336411953790 44.280365082737312 51.905466842598017
-24.549251132604766 47.573400423383127 59.671104343963904
-15.274878079683539 51.546808338721320 73.455054979933493
-6.081761266171732 55.836817940151896 89.567660828406190
3.461196725013018 59.010276918743294 96.287124292931679
13.195277336237814 61.671531412029594 97.343420183987632
22.783539418206942 64.302332040623085 97.706696633711474
32.409864883495196 66.852875198598014 97.457052394058593
42.117743239191853 69.586005329795327 98.630614813299502
51.638639874334523 72.397854547263663 101.700781880663655
61.398274331394063 74.748248839089882 99.157998497407775
-37.700555258154466 43.648168746610068 48.434755712335608
-28.137888918633308 46.927051047043634 57.272542348171889
-18.786283713308620 50.425185147041994 66.109540751885362
-9.713389353080888 54.898832973678907 84.960624766110413
-0.232430024152755 58.435389273548950 94.505091266872668
9.158254615475398 61.442890878889116 98.015401190835192
19.007479532212841 64.089968563395473 99.027138605620024
28.658536814753106 66.461457149697225 97.872279888495299
38.316584597740729 68.893857737090769 95.832522959250142
47.803953304284157 71.970567359489948 101.957259451572810
57.529910061154126 74.588208480542960 101.045958004503973
67.343194682030941 76.316977623022154 92.365094261824567
-29.173212584793603 47.522328316583724 56.038849996399527
-19.624840042906325 50.547509623679069 61.325626298410491
-10.467411143311384 55.409113321089016 84.550521572100735
-1.059566683294936 58.890344381003501 94.299387832478999
8.393044038107748 61.820102740476699 98.356762919307769
18.067135061705386 64.560745231209694 99.439576402168044
27.657638751609745 67.026928585607209 98.115135294662551
37.277689506643000 69.450230210999408 96.328518239071883
46.989377159563915 72.506818652651532 101.970112536868868
56.640231986605201 75.079557229668097 101.389845997657943
66.464559509741278 76.891771083719902 93.734772052284342
-28.642547310494088 48.441724310595404 56.677981385829497
-19.121966471455991 51.540653265998813 61.461614734662270
-9.975900795259495 56.383542597920545 85.639658793772810
-0.667367096057474 59.753652238809480 94.633139190719035
8.879299714251044 62.827817044231857 98.441923558408376
18.630266457741733 65.415718900184913 99.633627560647625
28.172733279592798 68.048930390613805 98.556003112680756
38.041824244345349 70.339218544511112 96.395623951676214
47.585915665072257 73.491651306563568 101.978967088253214
57.176648734008822 75.942827259688471 101.373109048994721
67.009533353308655 77.827347084590926 93.241906258473776
-27.631213536801042 49.444994522672708 57.973012708350673
-18.034199120055760 52.400586247831932 61.697460238226455
-9.082053669507559 57.446734528989452 87.422352121302239
0.440876736652879 60.908919689545748 95.208384890345158
9.904805278238770 63.756702722937035 98.529711772771464
19.554248293289216 66.373139001303542 99.597030474628681
29.346621468111117 68.939944830594243 99.061392282836849
39.035791618563579 71.321111836386024 96.311779799776374
48.368147319079981 74.354311004422215 102.151156320082933
58.204889574112201 76.850194715273020 100.882899091793703
68.135478135444146 78.573666562846967 91.642796133434189
-25.746617098258760 50.890390278490571 59.394253782697199
-16.124272555556963 53.901195487056199 62.602211497607065
-7.057249175365094 59.043394474583508 90.552849056168853
2.305805983039317 62.332892844294712 96.618856682652890
12.017482469152405 65.006474618065283 98.447459192024880
21.618041905431710 67.644419742605749 99.230155778202317
31.297616951291321 70.272563009944434 99.227367665631292
41.002761149364702 72.680909737032280 97.276610425494525
50.553614929557625 75.688584251285477 102.513850722981871
60.223338477255091 78.058033070802452 100.311334790480984
70.214601612443758 79.157511444540020 85.236441007673108
-23.273888975362944 52.364594462313036 60.482580631771945
-14.106806380516929 56.996468001664176 81.940413271881710
-4.622830397300540 60.638889544811413 92.928143417060951
4.773064721882740 63.792775467690959 98.003527389519732
14.468710898444657 66.422376045438369 99.695890093062332
24.093486960811859 68.837486973079749 99.631528588861187
33.816270409208997 71.492498666463177 98.951533490052341
43.453767988453052 74.237790430032931 99.966199227969085
53.136567487053952 76.931625466503817 102.749915334597546
62.619781646301313 79.325099522886987 98.784696644440245
-30.203293526004749 50.590828150037936 54.668731615776601
-20.760445670845979 53.838401851443670 61.024846387791953
-11.693498369346749 58.682182176963337 85.527661873290768
-2.312789400583295 62.196658842637135 94.914707106507350
7.309608202828773 65.206691120165743 98.629036254614292
16.876952417383720 67.840442411413079 100.494811140462588
26.612444480026500 70.266852121633434 99.586003495687748
36.296767435267157 72.856011147792827 98.027327432703387
45.849197967648415 75.728930745289006 101.618258839764678
55.575299627299145 78.357735604714392 102.254130550832386
65.344766701030593 80.394253653622599 96.071157174976690
-27.471476964062759 52.556473995975807 58.852380481558129
-17.895482207225704 55.431190462709125 62.060417483588509
-8.916895316922048 60.646880960278580 90.318224314036470
0.652288100983968 63.915834992919095 97.032388429764637
10.203753775565973 66.600785363867701 98.589030917582804
19.840612610234519 69.357992708629979 99.970229939299912
29.467864832138090 71.802624287260613 99.942764715131858
39.182731523158047 74.237080109883848 96.963107210412332
48.806423831913165 77.218425816312433 102.486298076986614
58.501022016004860 79.884419404766021 101.312058834338018
68.251128942853498 81.540919245692763 91.844147576213672
-24.421700263813552 54.262295906837537 60.549815146140652
-15.472341371929261 58.766652311588892 81.687861157823193
-5.915915337601147 62.225369100427422 91.760191982253303
3.494791050940748 65.533707623501243 97.999266172656263
13.210194903315918 68.299641549420457 99.591263860542000
22.826121506694211 70.775880011339368 100.293471479155784
32.521049664615688 73.344373864893882 99.823598201147945
42.138175293067142 75.801510179617196 97.742647087486148
51.747838236331404 78.780932579107940 102.901285107446142
61.431019126415428 81.207625737798821 99.799683569465060
-31.464402908856648 52.452194036447708 53.566674755247291
-22.033570102202560 55.690580417349288 61.199385478669271
-13.044601632374015 60.671548737958560 86.754616580694929
-3.584575401032762 63.984509893017538 95.881575789077445
5.991904589024090 67.041116850758243 98.481702386342747
15.572874896075289 69.633911875235839 100.518635244847260
25.251803095926533 72.129528348847799 100.113200115236879
34.989406182132150 74.747796018541024 99.196509044650568
44.583748785393269 77.374608141840213 100.424250917915188
54.205463629267577 80.102241027923966 102.838556525035756
63.935487560586743 82.321296253372651 97.472390902540752
-28.603652549601790 54.437411095154452 58.812811858661256
-19.136783698005917 57.279911780423916 62.108941573576672
-10.109240255888047 62.478403649909154 91.284855747581688
-0.654531554066857 65.701631394962192 98.216101986550782
8.932105347982288 68.344621706122169 98.682988071992483
18.547070936923809 71.017126665956809 100.402230472131706
28.195504081962422 73.710862134387725 100.102567611621225
37.950038733714081 76.113569113057295 97.935847095807247
47.522782691499934 79.102984564418932 101.800919719977671
57.257093054883399 81.473001810855948 101.873997738368729
66.970604388556865 83.492992498781689 93.758129151693311
-26.206247234452590 55.862076481212355 60.571811040538002
-16.650182175973228 58.725876317731839 62.920085054379697
-7.669234816639717 64.107425386839793 92.218105770764751
1.830158472841084 67.138584236960725 99.018171633875056
11.545890392154289 69.834561719670830 99.547374158409909
21.057433710413381 72.379905682892257 100.420533285644581
30.777474378004435 75.118323934108574 100.598251103981468
40.456303976247540 77.426108486578755 96.880381976912290
49.954197257685927 80.346449946048082 102.459801835918270
59.690073946757352 82.843054548258309 100.694971201381136
69.670398791329148 84.388875564636308 88.202862225828540
-24.292102928732746 57.224173528633386 61.392940440918004
-15.073547936476810 61.902333047838198 83.757730173572739
-5.861199425437967 65.621418977527185 95.913347707858549
3.724132827916499 68.381943136670074 99.353774829524710
13.473114787804503 70.973635134521288 99.846119946896849
23.086938755107870 73.756176873974368 100.769593425660176
32.732173088641893 76.286855959830646 100.359461296266375
42.496490338791340 78.616132550832774 96.603685266179212
52.049189827212132 81.626697820425434 102.779539761854210
61.740261296685574 84.023760795258113 99.353281806767427
-31.414561405189481 55.615602854698380 56.310221582394618
-21.792835581886504 58.681840857713837 62.408455852231278
-12.814489168684382 63.907876022476309 90.075982073572220
-3.352407124947925 67.068889118725082 98.015130628477635
6.219738395589200 69.791971796889698 99.164913088271916
15.966047377968355 72.342577918913463 100.066552223399540
25.541949321945737 74.995998009185513 100.478813805728038
35.193798849290417 77.676238302313692 99.691325071180799
45.032049211080356 80.088576600395626 99.306746242694018
54.465442398477265 82.931104362473079 102.606704864396775
64.265939280814877 85.136878264476536 96.877522537100518
-28.460743040480082 57.408661694678642 60.152159923172029
-18.795678377031543 60.281511859228374 63.038284846209095
-9.933225550968785 65.479756636542959 92.620135631661810
-0.401950662223530 68.658646163666390 99.032512309808041
9.236844199704951 71.285474393985496 100.003367610126190
18.935526239944679 73.908738982049499 100.190269615104810
28.536090105999719 76.624981583881535 100.655781711165488
38.283824698427523 79.015815274364371 98.339849816525771
47.782669990204361 81.858920921886067 100.997070617219649
57.528855832955550 84.445566058686865 101.431180177732045
67.326548614505370 86.280153772491673 92.586108865643055
-26.135056046248174 58.970356176269831 61.866523506301753
-16.918934399351649 63.583487523120610 84.162019804633260
-7.551317031999018 67.082309065142880 95.373268664963732
2.029873424534509 70.040978169580299 99.790085521060561
11.787804369797193 72.684527040563481 100.289025369798750
21.327957184566689 75.357138170621567 100.629756019548466
31.002841651710426 77.974164139975869 100.934982475010557
40.660230071660251 80.200322385879957 96.608244883107233
50.278514361064495 83.154113441575916 101.864567745320485
59.942288282916572 85.592213630040334 100.035124373626203
-33.069356965891927 57.088564507504110 53.834662593678232
-23.538933061784157 60.470874876139668 62.544868865502984
-14.488915043218544 65.323888585243793 88.691733707587474
-5.176259957621808 68.725427261368267 97.208615989695232
4.542706489709033 71.471214151342863 99.663844375756597
14.163150767498852 74.001309969087700 100.195730238983771
23.799889061492458 76.696392366735424 100.863564555367205
33.461904608861474 79.251390495961743 100.386116274789302
43.271713259949451 81.649266214964513 95.931571676664802
52.773948767317570 84.511201600245272 102.123220118735134
62.440567510943012 86.842967040949304 98.102637922909096
-30.700840430882728 58.933628460502469 59.531351275392936
-21.106157656100429 61.920676955250599 63.001017716243595
-12.076083980114017 66.984033464022716 91.371326794884595
-2.597595158518427 70.161075717821589 98.301306896722622
6.964312180030731 72.824112150532216 100.680928092428019
16.524018835139834 75.440453463364207 100.011478458740186
26.329007505897614 78.078490449317201 100.529133785530462
35.994373799752914 80.445094973696058 99.524145072783071
45.741887339085324 83.058380258312724 98.010855749979314
55.265807106386070 85.892299684917177 101.573227712462142
65.090341098224826 87.923849541491862 94.851974855810099
-28.235272125964784 60.583553969210200 61.915106865794925
-19.065855815773364 64.825215206593143 80.897377705547925
-9.752550824158691 68.564111128163290 93.672626712010086
-0.168362107505990 71.631964630473831 99.205393977086928
9.577917916715261 74.268392754138688 100.642517586880800
19.071246014513743 76.818530598651307 100.028521559418223
28.859144705254746 79.492016534458457 100.876329208156164
38.530856503026740 81.881920606566467 98.277346996232254
48.051498327277550 84.506926216511758 99.882505725911557
57.804360724507312 87.128534677813619 100.507314328581273
67.667176978499725 88.864050851922514 89.074832276076521
-26.328102344973068 61.874998977254506 62.777709110011386
-17.027798021924159 66.404002765945876 85.045142813867002
-7.767722147074238 69.887732133892115 95.543504488171337
1.864777794187669 72.754142529129425 99.806088208669451
11.497478296476448 75.400428923092690 100.884065030462168
21.127968874113904 78.061266016574677 100.280689024751140
30.827153065818681 80.631942579852478 100.785350102086753
40.482804117274711 82.955593845243882 96.646863419533403
50.190782747272252 85.832300648028337 100.527366650079145
59.810911663427760 88.325168217804105 99.315467222218373
-33.701671302702280 59.730800647622054 53.555728803293881
-24.308156669656803 63.248448221046601 63.251770821140994
-15.152259069002341 67.828577788207241 87.702405539116270
-5.721090272105339 71.183944990056105 96.438380683481384
3.844435163806754 74.181996904113802 100.597907311639631
13.507616178383326 76.696110604501527 100.998451643729709
23.132895128159682 79.311634908532355 100.524985043083674
32.784370949726153 81.845793608928886 100.309551344653116
42.543294987497703 84.134311124021849 95.698155009660525
52.205291868835026 87.042324723063999 100.668346374192311
61.895980126898095 89.394726236670351 97.495794194773765
-32.833205818366913 61.178790353957062 58.122078104772129
-23.258121294502445 64.177151650092981 63.332120968658224
-14.260962917591826 68.943399188311417 89.457562449963831
-4.744279431448636 72.131329527438211 96.999438894517411
4.928671262165558 75.180800741672414 100.894687377941878
14.581833356653306 77.617937425499861 101.302160739731946
24.202840926402395 80.235958363797167 100.527698060471693
33.873191680047469 82.751733003815602 99.870994739526950
43.690540591348025 84.984419022547911 95.327650144612079
53.229930272570918 88.032130478420726 100.487013241158664
62.829353170033670 90.259351750026539 96.194734948692755
-33.618910039858278 61.474040117468903 55.854953413595631
-24.122631490019860 64.732587819772206 63.326894333086265
-15.055934004510323 69.318531514710713 88.483813423457690
-5.646705009034088 72.657196583988522 96.697675650283969
3.939287025506498 75.471497898941479 100.574747976219768
13.575544677138879 78.107957345291737 101.397705461342611
23.252040018847861 80.816321991531396 100.338443611957942
32.843231438127845 83.350454167048426 100.205651801887527
42.568900945640486 85.530560023795488 95.604748320084397
52.268786113862035 88.408539860992391 99.848248631258826
62.008597447913296 90.598611962849034 96.213446118309903
-35.876477611051854 61.027836090492933 48.807693482088709
-26.522051131717681 64.702016729722729 63.123179694966950
-17.327929261191318 69.234194126152076 86.033687954789741
-7.978110391687888 72.657756003596177 95.840652752367774
1.652164892245162 75.613123413719478 100.347184697884842
11.232338379011907 78.220409268371611 101.292398919562771
20.968974910255699 80.706905818093944 100.172209689112179
30.606365289161442 83.277051211469484 100.482888880810521
40.286355139059090 85.663509712390606 96.854529628015513
49.953018357408581 88.383408223749370 98.418445273158952
59.593107011031393 90.903480155891742 97.704531663970897
-38.700702853262783 60.688070573973064 46.069253322585318
-29.382074523218947 64.624105163174406 62.503389433537684
-20.238265829143721 69.148324372721632 83.823552710412002
-10.823036828088801 72.593907611540757 94.650038572936978
-1.168887343871509 75.458556642120115 99.728790380371166
8.399380444417254 78.126013354131828 101.305487281367689
18.151466094271314 80.688273852476854 100.615324428017260
27.738977832448938 83.348218838693072 101.016671805440666
37.374229176922015 85.783845725407929 98.430974811349586
47.275674412821395 87.874955501049300 93.383211088927467
56.771638041061436 90.873719527532899 98.532897537891444
-42.368017764526300 59.855895964177705 39.496854114208219
-33.126545790308626 64.175338795166908 59.102863051372466
-23.509178347581841 67.056816983187531 63.828124200832342
-14.502092677962914 71.911645076131009 91.396376384853056
-5.048688110066680 74.868102259198679 97.505721429957035
4.661060166681068 77.860885132921069 101.040768068050539
14.325261316036006 80.391667026162310 102.028878593301130
23.953939360454612 83.053831533497330 100.382201672004371
33.606909435432762 85.486540671273630 99.782495241817017
43.345752981416666 87.721846881905421 95.144770662723431
53.009165283829333 90.637019195934243 98.059194539823224
62.789261971601277 92.750166665607310 93.087549909305153
-37.214923569762362 62.981047283724301 50.295749920532003
-27.842827946088612 66.580003576272276 63.463241436096837
-18.586266641730603 71.076858947739396 86.297885647943232
-9.306580248185885 74.372115075031928 96.365372798392642
0.399965015216539 77.267421421466025 100.462209943549340
10.080699612359268 79.941843544738461 101.618140271373221
19.735792480533412 82.510369404058167 100.761779432514047
29.323019092823188 85.054304589111851 101.003102832504311
39.145291155568991 87.499680794482401 97.559394924878433
48.867729385118039 89.594006447434850 91.733713131955355
58.440074237216180 92.599946467589419 96.161669693926882
-41.795877984673147 62.151795367777396 47.885200962823085
-32.496256441773816 65.755857426727744 60.363719610207546
-22.833078071640355 68.687059389257314 64.599643039152795
-13.921730796654444 73.699934451282559 94.078663041710954
-4.290895890753879 76.765622583998123 98.693785937768425
5.137124779088783 79.473653879515268 101.411951286486413
14.884192969613927 82.027473924249875 102.168221559769705
24.560444333464183 84.566923890147194 100.873651809117106
34.239623129912744 87.131421021794210 99.638896462020611
44.031431236259763 89.271854531697628 94.596593952057816
53.636068722596718 91.938066905241214 96.437545192178575
63.440962095543441 93.962616321722194 88.529732939215350
-37.617678307325392 64.520853179003637 53.051042450366140
-28.253420019326398 67.878450322556489 63.595819066798512
-18.977093158283566 72.363052796240510 86.528619645559488
-9.495825760747984 75.779674997852879 96.917809000274815
-0.017064270949309 78.696330079731851 100.592473341935687
9.563100460811970 81.357146770012932 102.472616110864735
19.341364042676304 83.901018166479261 101.151394709211459
28.988059567389602 86.410122656133282 101.260095123251716
38.634306743308699 88.830929842159378 97.792225111689362
48.523805393143732 90.934898015164208 91.010571004471572
58.080102341429289 93.752976043299412 94.435196808747662
-42.250780137894758 63.724721085107610 49.204416222305056
-32.879918721116226 67.106387571960354 60.619411006213689
-23.290969304887888 70.135696053991722 64.691904799234337
-14.357370842084670 75.088364039869305 94.522335799706326
-4.748228722958956 78.106727955435730 98.879477498003482
4.817039133086674 80.764839768479106 101.699973877451200
14.597236669530361 83.364480902086612 102.503280213855362
24.288861422323262 85.945944583989743 101.393946495798303
33.893873411211082 88.287540211648391 99.504988739514687
43.697067709290735 90.576392434948261 94.636214066137072
53.315319120328546 93.150859234108168 94.280905852174243
-46.318552659290162 62.809035525061006 43.898967044205151
-37.046323425900567 66.467993376636912 56.328191580447857
-27.543564963422895 69.494157026398639 64.186293371620394
-18.487140478877159 74.071471992862783 88.792128631013512
-9.060121713855430 77.457965215524908 97.377019440513862
0.571596040265407 80.145478945465499 100.699625640494517
10.297847557110853 82.953623390656801 102.851721306688276
20.025984198721542 85.468328111259467 101.703782977384122
29.612758861158941 88.100671397290171 101.227066684160803
39.247660361509233 90.383861833864103 97.234418786985330
49.114910373713101 92.386026625957413 90.248966704037457
59.303235978327010 93.162880049436041 68.331846272661494
-41.268772655625590 65.506035356131477 51.530626115485489
-31.778903726922280 69.019678575155922 61.747486765304096
-22.624307791100691 73.400472422119620 84.237717025331818
-13.243959607673961 76.910294190475781 95.939701351096843
-3.639596962993926 79.699629815285491 99.959215972704470
5.936520236280831 82.434879170854757 102.471903161041382
15.630245849073816 85.023956848719948 102.726661113708275
25.319539849304903 87.546728035208915 101.749629254698306
35.118710162157484 89.930497703313506 99.142564011082655
44.761558887166316 92.228844035545478 93.759177758380474
54.781801090476861 93.860930038375756 82.005630303974570
-46.454122429035195 64.546559318427768 47.590769787634073
-37.014014916523493 68.054749611870420 58.197167651812279
-27.478025988181841 71.027389423297976 64.425426472243046
-18.313616104543037 75.631921625270238 89.767400407660730
-8.781830615440477 78.869491503829863 97.634752468321025
0.783362047369117 81.670201284827584 100.896315093186033
10.386779228021020 84.469428857590813 102.882726991107290
20.153788469301148 86.821382253941380 102.148262997711484
29.832627348705799 89.344541394510372 100.960302683407050
39.472216927790235 91.629956393792312 96.926658088585711
49.296256376309358 93.664051459616161 89.569270396149932
59.472300183604808 94.767372627463388 67.813015733872348
-42.591545664977602 66.691605124201118 52.001902968429988
-33.063522356707033 69.998830285034046 61.267564880052241
-23.939968507939582 74.184708260934585 81.944706279586867
-14.454134178951378 77.937340662992966 95.046240083289433
-4.796954680068305 80.601014816785636 99.104323566444421
4.731905454228031 83.452770536536846 102.531417853445973
14.378463468756348 86.131739577305964 102.965100002204053
24.081857720284948 88.670959416126166 102.344369581116624
33.595332206083484 91.159584759867002 99.794208092718932
43.496738858357581 93.417956667112605 94.606258110665621
53.384561570989746 95.022739218999078 83.456382514509741
-49.150533084722618 65.142707981202065 45.466882418601116
-39.659677629771799 68.584400669492169 56.134367929235516
-30.238242239163341 71.711330736579882 63.360894218728383
-21.003005690990125 76.182321759318583 87.848204370957689
-11.617996686213885 79.426967344296813 97.131238601821764
-1.914610153379593 82.284683251836867 100.508090294663234
7.641525513392654 85.083513580761817 103.043436703664952
17.296791631068448 87.488429299905249 102.485709660226220
26.914624281277590 90.107115596579320 101.681176108356880
36.709021010093807 92.504962021422060 98.416808097979413
46.441812628651029 94.470340192005523 92.080127374157527
56.431660975113175 96.021359863655249 76.465603057059241
-46.353649177213370 67.177651467641695 51.166770196259243
-36.775702649778758 70.248265861864311 59.505398962901232
-27.303261489237869 73.315329186634870 64.569725594506679
-18.126529308806624 77.975978940529330 91.385620539388228
-8.595962375999491 80.983731685795703 97.864923142125235
0.880269425333861 83.845733067392828 101.242133368544501
10.496287180467409 86.459657462164984 103.087729871669126
20.209364930234290 88.981225719063900 102.612139709688279
29.976064750859219 91.663886283609486 101.049712676866051
39.767198002729259 93.815392909826215 96.539358717522688
49.509976645856497 95.801895230931990 88.222144939734761
-54.080561971448958 64.499817116823237 37.205299815850154
-44.846725803881235 68.389526789620007 52.642980424751066
-35.358745951019912 71.584890940193304 60.936452135308109
-25.961931247237935 75.627739904722674 80.477917475090933
-16.641276448524412 79.050619863982078 92.575941596962153
-7.148519429946838 82.096853995622197 97.590920458399012
2.519544081786830 84.905785909374700 101.930119174982295
12.140234514202341 87.603211305503251 103.341828709614688
21.783045113871093 90.188005809815266 102.698973144647738
31.455458741161156 92.709862286554838 100.463255426616740
41.243293979373661 94.972288846783457 95.779604969500610
51.050618193084347 96.710680486812436 86.072051558865610
-52.765090824033365 66.069229998731629 42.628820769871922
-43.309229699018019 69.755998804680132 55.214558233368258
-33.897824126678721 72.831302391132780 61.939973266341127
-24.720376413989754 77.051278344820687 84.812518649229474
-15.091263961204081 80.222713974119415 94.256197371912634
-5.737898482527735 83.244630080436849 98.400331140353259
4.033753780784625 86.110173552754134 102.469077761590640
13.624430486862305 88.791513165359731 103.520361260063339
23.185511877792944 91.278607496037694 102.647278715812746
33.151096849871820 93.680231043262850 99.966218510232551
42.873038754859650 95.915027375621364 94.754963076438443
52.635823802451725 97.645438628170467 83.161529081802499
-51.816562087652052 67.283502761839500 45.748680498072396
-42.474902020340309 70.728451950264656 56.881545521900250
-32.847658025386359 73.913016858723566 62.501116511403673
-23.630499969923150 78.317926820398313 86.728894791372426
-14.166984939721978 81.355333347294234 95.159670145473825
-4.494684249134069 84.184684983786354 98.979608384154773
5.027926399547820 87.016695152514245 102.806651006590059
14.637361170119913 89.666349363649005 103.303973160166706
24.259303317989417 92.301826566603978 102.539735431603319
34.052761036120017 94.657384189753415 99.445183994962633
43.764541205559468 96.818992593797134 93.961044990274928
53.688813880169732 98.553306286393052 81.253351317022734
-50.864067176318031 68.589204204144750 48.657138926899009
-41.370950506938016 71.850805654629738 57.912985434633406
-31.913311249799563 74.909094661339324 63.207944625605457
-22.608399147110546 79.238349553294711 87.724290371022306
-13.062939033653347 82.334564841886078 95.560992981379428
-3.593413528677587 85.280334680247378 99.436934686014197
5.935641877337062 88.077685171900498 102.895332516284981
15.634323609334206 90.565884407946498 102.910890762554430
25.401738864282855 93.193861186069455 102.383554774917371
35.101211050269100 95.687272662127128 99.014995208353710
44.718595527456884 97.694894151900073 92.738454186667880
54.762584429784027 99.249407828680887 79.223618374593329
-50.281401974659488 69.592113029703512 50.139450487080950
-40.947390338699726 72.833634080931859 58.370721074055233
-31.384387450033365 75.796467380303440 63.567039592327916
-22.123747761528140 80.104062668575139 88.110144810760730
-12.476328476023895 83.313146559836156 95.820026046681178
-3.198082219699021 86.114327307207304 99.827974646860568
6.683454878111352 88.923438609636094 102.750797993116421
16.076363500366440 91.502632734001779 102.755025107934998
25.849195112076458 93.907080409028765 101.921148500166453
35.655863993327742 96.333990898536030 98.711890208350070
45.427817216632818 98.589656313692828 92.104973999678222
55.321666648504603 100.036156577941597 77.165713581346708
-50.715062907916746 70.151001225889004 50.039483625538701
-41.215240407790233 73.471177441495044 58.522822176467102
-31.782186011259171 76.343802258730591 63.691383014236891
-22.544424705513013 80.792349192340154 88.148564269110665
-13.132137153091215 83.882326187007720 95.648043490704296
-3.397883966482988 86.691859108009183 99.894005405620589
6.090367934282447 89.519417100363910 102.547111891572484
15.883582790429564 92.072883118722899 102.815396639975404
25.576764673697518 94.611000956956104 102.078233666092117
35.256696169205085 97.018796594030803 98.817254711170222
45.098047446758372 99.113055476191363 92.358991151917408
54.903086305004777 100.607666911484003 77.850320210439236
-51.618255891077368 70.520789483807690 49.235842896247227
-42.188693546840788 73.995866831083987 58.494503144328206
-32.670970443006013 76.836770976466624 63.436907833090793
-23.452331716407581 81.170600066014259 87.745331982591495
-13.886720426573277 84.259547417484541 95.000778053473638
-4.278914402271781 87.154635219954613 99.932497755336385
5.278264969604297 89.928245739228174 102.022439818337276
14.818189344948141 92.487862658684350 102.793957492412005
24.649866313445688 95.134890888542515 102.149427622414564
34.356022340407620 97.476851522119688 99.193967232633341
44.122363076900982 99.647651044008299 92.838203728171806
54.005168098106580 101.203766672024258 79.607244416903470
-52.668853478899649 71.019021957794962 49.102123239302351
-43.101739960356866 74.335287056234108 58.093613612915206
-33.615290344410873 77.319599775390046 63.315931666794839
-24.283468803171523 81.680161194639936 87.643978994646119
-14.820673787887056 84.682144324000916 94.451500779462279
-5.240729297778323 87.644185245200077 99.775645552337309
4.386718971503964 90.272489365985933 101.459405507113146
14.015132251496265 92.925291449383366 102.958103642396864
23.672468625860066 95.575919235774862 102.169109177890306
33.364906060156621 98.017503364709839 99.571213891505337
43.222274281971266 100.085253900468530 93.613415705075028
53.087308572472210 101.878845120671031 80.961526499154303
-54.435254426795865 71.252825141732941 47.875486660820584
-44.869595188644254 74.432630651424446 56.909953813807419
-35.364392253939045 77.319743106704692 61.820505768913108
-26.179713046497817 81.742580809426173 86.840041689634859
-16.648409948028959 84.748400216602491 92.859483530618661
-7.124201764475687 87.818891673445066 99.434083219826675
2.674172496324541 90.454106003886835 100.720439681696334
12.151703163707385 93.157844986624156 103.000240616656427
21.919979697167491 95.747493352289410 102.361922910241731
31.555622298228936 98.141762334960930 100.095061001731494
41.299238361670547 100.477134481318856 95.014863586757798
51.118008137456016 102.196978632117251 83.356746103447151
-56.668819117938824 71.005101933615336 44.282639556575710
-47.189331574983797 74.535921825289876 56.191338136954450
-37.683845190196536 77.346482908319715 59.677233008238666
-28.425589549654873 81.630735719141512 83.230112494914280
-18.943133859627991 84.743100838730285 92.182637024734959
-9.510130211691813 87.823009569575802 98.622273183217445
0.176313056282616 90.484896366370322 100.706646685474894
9.807812277826418 93.160650814381384 102.746296154286853
19.407463963817843 95.735634395257023 101.797101129806606
29.075055562680664 98.249655297504304 100.579763584105606
38.877312349311900 100.497508412096394 96.575436499054163
48.684765738466439 102.548044067592244 86.276616519005259
-59.465979294813764 70.462319183718364 38.519810151738362
-50.006854468867331 74.183624726933999 53.466945581046254
-40.437058928753494 77.298478589232261 59.125650480101513
-30.885028682512200 80.240518706437442 64.970197247361739
-21.758926023751702 84.661460876030247 89.947856815152434
-12.135457949850696 87.636323333409976 96.959229915420664
-2.735493440498290 90.370765984824203 100.684361188099956
7.060342018546113 93.028252298045416 101.639832071861989
16.657755485246085 95.726125913176503 102.557205266183971
26.186777112075031 98.248284902641686 101.476979934781355
36.041455146299107 100.672757693240413 97.757279045468920
45.892928441790808 102.678266429792700 89.712450318143979
55.817055241555202 104.098927391930374 72.184530674956946
-54.778541974759243 73.434342280590570 49.768048193947067
-45.220823480467331 76.625396405252360 57.229537651983755
-35.706534212140255 79.538907824465909 63.092770552445387
-26.398076003918334 83.801529468122467 86.764716937401644
-16.925825362840992 86.799661346205824 92.892905525160756
-7.375399061595237 89.896671049651545 99.563617880138679
2.219424827449910 92.460505250900525 100.745382456664743
11.922303003312024 95.146334212744449 102.620789039966823
21.514945910490319 97.779256760471981 102.784426868493412
31.314478734566478 100.215134506642300 99.951908657309289
41.056203375600582 102.418241251011253 94.597685351356759
50.883081318560627 104.244930149697723 82.873437283272793
-58.848858751083966 72.427007930703297 42.641629787609311
-49.512064478256157 76.100006306782547 55.540835234860722
-39.912114672999209 79.049868522755986 59.809662982933531
-30.316621616446184 81.754186656732827 64.979682284441282
-21.213772995888672 86.049543759612291 90.349409060534299
-11.587528889526407 89.167037552663388 97.233160650957544
-1.956948608221634 92.059283218148195 100.858206274094371
7.587921786011975 94.708377475172199 101.434596612896812
17.259734021695110 97.298897243130881 102.016615474672335
26.950088451904623 99.987746536755139 101.258986572875756
36.666481290691422 102.146237143770165 97.113715800439493
46.473044472325199 104.132310753291335 88.303865197092620
56.464290861405424 105.491028209331319 69.590294055530734
-54.633141914411254 74.951985578537460 50.536352924712723
-45.124802390136587 78.250526351736440 58.464725109033253
-35.505190587016862 81.127242049748943 63.814821148368253
-26.453375752281971 85.208881243390138 86.682360918380013
-16.764596097893278 88.220122350590671 93.587533308972809
-7.259168815798636 91.228474537449515 99.572225174931248
2.466431614822010 93.869072680194279 100.637229044232967
12.109136223943096 96.656578323777396 102.662170803217307
21.788319789647332 99.216854746339010 102.925593032715312
31.332780035086977 101.492098334781105 99.530050447145484
41.154974190170336 103.808645634553031 94.133249669833802
51.077376955176625 105.507800488676679 82.172892435377420
-60.200195612402226 73.460001895940849 41.691275419843777
-50.811612151277998 76.897785613916739 53.491587249447818
-41.240468091580482 80.039032860023354 60.551160795263044
-31.718732753293999 83.068411667275754 65.299224102598089
-22.475040507286288 87.157325121496513 89.553342234604742
-12.971871867873851 90.254741970818344 96.016575899854246
-3.298149170020023 93.064652076098341 100.562172388003944
6.367606934765956 95.529141706476679 100.396190762745633
15.937500783788391 98.302480144868397 102.155440743114511
25.668817870445139 100.936119570656444 101.875292592932269
35.380621759536901 103.262729244838440 97.492293308559837
45.090167614135339 105.350552478986287 89.427929755279152
55.249455123556629 106.842465968691016 73.319457510907426
-56.492096106877213 75.844956405368791 49.764635888772624
-46.885398296692685 79.080714417357925 58.149562832798281
-37.260570983671911 81.816366150659263 60.230521571754927
-28.104427360056199 85.938962647652374 84.201302920773884
-18.560319607949182 88.997737854440814 92.472557515778519
-9.007951123126720 92.109622396599136 98.398958969577805
0.631102366615888 94.847929081459696 100.907367403582825
10.266288454480883 97.514952548962015 102.235991622767756
19.935896797118694 100.061253773290247 102.631619815889053
29.673698148459280 102.484607790174636 100.093156503988141
39.335997624454151 104.749320944758836 94.851647670341052
49.236348025212997 106.886456811691573 83.985060649804922
-62.369528353994127 73.928699262482027 36.889738024782787
-53.061499942944479 77.807603252576087 52.192246005365149
-43.531322450317766 80.843673648135777 60.006113550457499
-33.978395904167485 83.776026574373333 64.770251418753844
-24.671197772572523 87.891510363954964 87.734704069288085
-15.207797405178439 90.794374095636869 94.620176567740842
-5.518732092265173 93.813024234383022 99.512295140688536
4.131615658275017 96.371330137412059 100.725916906644869
13.697413172891050 99.144839238983593 102.301382917944736
23.274167831465999 101.695844948272978 102.472861302638464
33.128451781426904 104.006392257325984 98.295714495683498
42.882991849899454 106.224842614078867 91.712560512301678
52.771130401410744 107.960956738229498 77.939909328507312
-59.147787301334318 76.365101228256520 46.791471216892738
-49.727308492434055 79.610795950446288 56.054925676932534
-40.119550973140889 82.561390959670945 60.508967285351595
-30.644151949868863 85.605937302265005 67.646725564901033
-21.291330033607974 89.652794221962310 89.994184581148161
-11.686261891166236 92.636772565971242 96.454288016645137
-2.140386700438588 95.521056315406383 100.640188851692741
7.517716538506068 98.024008862273476 100.675119237073730
17.155217963837568 100.720258163216158 101.798029900027188
26.804655644208705 103.287548698810454 101.098212882078627
36.580076874059102 105.534838886731137 96.399313986379170
46.303699591702497 107.511534326494029 86.933711286109173
56.378020294626126 108.889767293826893 67.340858020754411
-55.323512390856763 78.612948872273577 51.717854581190522
-45.917876686046213 81.696730753614105 59.191726107762669
-36.231052937180777 84.566964727565335 64.061607403642626
-26.976751466806043 88.478906139643883 85.412650936172597
-17.346575710688729 91.681798216964992 93.389516286007364
-7.791175086209961 94.446076154175287 98.107626147967110
1.735125748427844 97.109750875085922 100.653878522350865
11.336869514266823 99.843429253642739 102.297726811212328
21.109313352969512 102.568380002147364 102.403179018451496
30.902822095049856 104.826807960047987 99.384879050924823
40.539654105671154 107.076479545709347 93.327636399729400
50.256238548132458 108.906829661080053 81.312349399765267
-60.917053341426040 77.128140599661393 43.514330274808827
-51.364924420896529 80.425387980858659 54.081005092859940
-41.867826387699907 83.450644738493111 60.408404226470431
-32.421575360468260 86.537821007480886 67.197906246180395
-23.148360491770717 90.495591695956890 89.272528704724891
-13.492694216584255 93.427801387181759 95.272268087541562
-3.944662579553460 96.264536580630292 99.318304300058912
5.802502244547494 98.912024876260432 99.394328389012045
15.362512104640224 101.516873579914630 101.955539174498071
25.089442502017530 104.149184521092479 101.692130877248445
34.829066935627736 106.588608521516491 96.928780158622118
44.442821239320821 108.523850763413350 88.657493443591889
54.455582762952822 110.173214218392786 73.180258687278069
-57.512103993836924 79.234480544447962 50.416032370522956
-48.089326879534127 82.440967408094721 57.659687872605886
-38.486515415158244 85.205155667752805 61.241475613591213
-29.191784631738543 88.917924377431092 80.263870694243877
-19.688095652887153 92.286510364976095 91.859740876125514
-10.120987071538959 95.243329364794093 96.889992671846940
-0.486712402062896 98.016396427680547 100.027946208213535
9.228952455959764 100.591655624208883 101.602384647752274
18.768838829160121 103.352218108870431 102.076128152471185
28.569255117096990 105.641110068048533 100.024914080097076
38.240386057983415 108.041294951197386 94.599610125903482
48.069225019909481 109.923767326949758 83.923460772048813
-63.072927892013368 77.803287411622719 40.367731393522718
-53.782971189275756 81.201615714795452 53.264363640493762
-44.212834513485767 84.242637160569529 59.640910301812916
-34.571683936246913 87.216061900438362 65.016148127870622
-25.328547332516592 91.143775543542773 86.933523952279771
-15.813716844104366 94.234518036450822 94.036764340030359
-6.167400077935543 96.952306068291776 97.737535031907839
3.613500808877717 99.677428426697332 99.824233596302022
13.035546505238433 102.271100610802975 101.976715440014644
22.726960053926717 104.877292397591518 101.577911907058223
32.504355057699264 107.357426980163680 97.798446033296599
42.241793254877074 109.418745634584965 90.745813802178304
52.115583776292596 111.115965542822167 76.846801164795451
-59.366057942452073 80.230686782364330 48.507016678110489
-49.994672977659960 83.219080390132490 56.165526619675028
-40.265183250345558 86.224869788567176 60.537283541403951
-30.770132066956776 89.190680185954051 68.339685610722881
-21.443403923819904 93.148567414655830 90.011559611928618
-11.904568563285007 96.015417008696971 96.026846252262530
-2.313236596653216 98.725388411927270 99.059825831853473
7.380841321439789 101.478350391614995 100.285001174507727
16.953597301109301 104.226542919944919 101.657375809415342
26.721221753700352 106.558040430874001 100.282689003516680
36.446375809241275 108.937331570568489 95.311640437462557
46.146516230343579 110.943123868468021 85.470535398894498
-64.933830534147049 78.423680385093704 35.908966014314949
-55.700781776864964 82.164244819464614 52.727864845157839
-46.003370696660170 85.214637159551884 58.506736517444260
-36.357903612262099 88.041214006390291 64.184041482696273
-27.023069150961327 91.754776060445124 83.117775056336455
-17.594761146518110 95.098080217339060 92.716727174643623
-7.985247156892367 97.852496360029591 96.885003612799665
1.514112225672473 100.505407111592817 99.370850283866773
11.303124558662354 103.370208316419195 101.595904812670085
20.865176285259430 105.846219807516050 101.330721412912268
30.616880515403203 108.311551273707579 98.533627565002931
40.361862905209371 110.505827178259466 92.026010783813277
50.327306249146027 112.381261175751675 79.514803437759852
-60.757753285952447 81.010732289209400 45.381389185258080
-51.236818549344449 84.356154550580683 55.804066975448066
-41.630444491811389 87.150092589704059 60.118158003956594
-32.127326556418645 90.288605923695016 68.062505886526139
-22.841602216733961 94.102621350881620 88.628235318818469
-13.042019253179742 96.949194052846096 94.891030809257103
-3.615950941008800 100.018387247616275 97.717549176434076
6.062171223972175 102.451762069958392 99.425200357988658
15.710390009883209 105.106152100006653 101.430386738229572
25.260969809272943 107.691082286995737 100.321407668614029
35.094701137067702 109.954766912171124 95.714263296695776
44.875534074691245 112.071301136159761 86.155448590074641
54.814306965740371 113.462691401595436 66.310746206539193
-56.930985751940078 83.264015188421965 51.841918805605516
-47.358397152982818 86.294247131013080 57.658988001472643
-37.715601935393053 89.200364966565743 63.108472248653314
-28.280538036888146 92.710910812256614 79.335947212308554
-18.955985716340123 95.935963763704223 91.141173308743916
-9.339472915925041 98.781261010012003 96.089454358571615
0.331681931566951 101.577050988988603 98.491950215863241
9.976010844775047 104.281900116902335 101.050827332436725
19.581754920730763 106.925882770241401 101.132292672498309
29.337029512778248 109.309737774629085 98.416221355569263
39.032723864539527 111.548531605794722 92.671455620230901
48.921826313221892 113.508124671401532 80.658091592231600
-61.465607619366139 82.099908058311883 44.643710019211611
-52.055775487574991 85.495422729520328 55.599204473129227
-42.446876951136488 88.424882221493377 59.917122038745681
-32.997607321572701 91.472333460526059 68.084131934197515
-23.504287462807085 95.019093566998876 85.711457653100624
-14.080396875665688 98.086080404019796 93.622895089049237
-4.383283237834323 100.817116602696117 96.513264159037504
5.254981516705485 103.582403641125154 98.927077710116009
14.910938749119079 106.294353021910709 100.738664760704793
24.518291740845630 108.898071382704060 100.020653164363040
34.244550290333848 111.251501157088470 95.564788650919937
44.083135192422574 113.238399520203330 86.491189933765057
-66.087599805982748 80.734473866334511 31.658243236917333
-56.658288680744974 84.805821244634700 51.997914198478320
-47.155761362415191 87.744483799947204 58.547601655524744
-37.720041973414460 90.704231426671484 63.626613838076302
-28.123700910396806 93.839719639232953 70.902080443451425
-18.689899020511820 97.390680316500919 90.251029521133162
-9.135050115481546 100.319162489314238 95.371510206934460
0.405299076525910 102.913916366453179 97.436602399010894
10.054804367990894 105.704432109005126 100.621648276833170
19.797393310208207 108.336107323604551 100.555155822807833
29.482438489421906 110.721700647434034 97.832292791874920
39.146900148706990 112.920148408103202 91.696217840770444
49.061663333433131 114.857994820043672 79.284392730061185
-60.860209431116118 83.797902304467598 45.908590329064154
-51.453369394400816 87.104453181504212 55.425567164075353
-41.902759681648249 89.953461472060170 60.101301999776268
-32.312897978519374 93.108612937866297 69.580138009136633
-22.869206984663528 96.691748417893464 85.251184847961923
-13.396396340942346 99.741825490923517 93.495880966746014
-3.725935429707821 102.412523515532229 95.450557678386929
5.838416577181214 105.228140685916969 99.231847217897027
15.469703639364425 107.835065392575473 100.274750179799227
25.163143672393765 110.335397668316403 99.177468603416514
34.946506977159515 112.735623063112769 94.626676834564307
44.733226970085823 114.838819271266630 84.565413966263137
-65.160094295237741 82.990434382021292 38.711976246394286
-55.646129297121078 86.510885391896934 52.665578741066930
-46.141487075921134 89.545067509675619 59.200289637418869
-36.580605326286872 92.451410660750525 65.190689273689998
-27.096376842469191 95.589920312449564 72.790201940071370
-17.658920503603355 99.091839339785523 89.890504356112586
-8.020280650969125 102.003552322688392 94.359637168341024
1.635577926552937 104.741028680510055 97.470672439997529
11.212268502494126 107.251804162348691 100.180437156804004
20.935108201446173 109.888737550637813 99.850572255640927
30.568158920011719 112.458989634626562 96.595172747450860
40.332700098513357 114.474856186222667 89.270615044280689
50.150134737521356 116.322305553438241 74.535632551629107
-59.423604022921666 85.856247453283515 47.539474164217488
-49.909931022402560 89.162132052207468 55.945242330751555
-40.329727009514386 92.022380596367753 60.849878822900749
-30.805009022034703 94.977905859597939 70.236721794201543
-21.425257846923905 98.517199035031979 85.016314423952224
-11.827505669950860 101.511550483055345 92.749031162446030
-2.218902029851062 104.261385782190075 95.608784808485311
7.453781606331631 107.138165247743189 99.665034658686182
17.097380171525554 109.642157673670482 100.051972864222179
26.735195126443294 112.022227626234852 97.827342896375526
36.461242962217796 114.506070759019366 92.529537381875372
46.355292803315919 116.426393640875489 81.635188116781208
-62.603777127790337 85.565790536841689 44.691460292410234
-53.182886780991922 88.786894252447638 53.693600513252953
-43.559629015841203 91.731425935657541 59.689862810722111
-34.039505020698442 94.867886649210661 68.030133564964473
-24.531287149283930 97.786073813601689 74.526723112421280
