ply
format ascii 1.0
element vertex 825
property double x
property double y
property double z
end_header
-83.021154922275599 87.709104615946259 30.580003372436998
-77.969400196184637 88.406444770525923 37.183762277234280
-72.970894670275811 88.690483015051313 40.976905125504985
-68.078398304541906 88.840120047008568 43.484071745087910
-62.881357716391179 89.117385676252482 45.479851681338161
-57.968264450975020 89.053932122385277 44.638518164648119
-53.110864843686677 89.026603309710055 45.096836701140255
-47.899467275529780 88.932713983154514 44.883058824767296
-42.972332995532042 88.751616081219979 42.422310042874429
-38.089226486689228 88.972720386131442 43.470984083041252
-33.072792844790015 88.927280786797823 44.184320764499859
-27.928851536603329 89.081107790548955 46.351588265805582
-22.906615193072692 89.573851072251259 52.837237734918340
-17.961193114377920 89.614468541745680 55.755310411348262
-12.976335829525034 89.808264756651852 56.839961339414039
-8.020269567693742 89.743437505517804 57.064045006180208
-2.991554671358549 89.696003786697233 56.479795096247464
2.056158147849103 89.737251679779462 56.039751532306958
6.943962731185255 89.730716386135512 55.156227043937740
11.962658461529983 89.535742043680486 53.819592949511843
16.923045275902027 89.373137198334149 50.674310494450033
21.917913563760170 89.306991411009648 48.728901288646782
26.978841582995681 89.149678955426253 45.806034589947210
32.096800389096607 88.870894448163611 42.894734494154100
36.994754464975898 88.466117672350848 37.207440972457135
42.023157716139451 87.771018146361754 28.410649829045408
-87.743414451381128 88.004423571472188 22.322529401367156
-82.776510137011158 88.684415202017902 30.903404760602335
-77.824271362458930 89.081731168574095 37.424586641815559
-72.632254035038997 89.427753085012881 41.156861726012316
-67.746519463424619 89.705765340672073 43.433330807848925
-62.792256855600137 89.706389749759751 45.357043785638545
-57.661818577221773 89.653569173498511 44.975355383419505
-52.733454007378441 89.753888017120744 44.934168780667100
-47.795874711852257 89.734397535501131 44.669685748017763
-42.816424769929569 89.520425094401688 42.519125883171959
-37.811792109100551 89.586310141694653 43.504003647411025
-32.787963926505306 89.616496575422630 44.158377725410951
-27.690320225978653 89.762809643722022 46.220987553473527
-22.771175605212676 90.133083286772788 52.783753604037187
-17.675672133091826 90.477423951958968 55.641311659933010
-12.648282202867152 90.479616830539669 56.705832484285537
-7.703239901994850 90.499037957310904 57.022164192969086
-2.813197744604308 90.408690868396931 56.426445038200292
2.243904030889345 90.391561772094590 55.703594945481548
7.273508233394391 90.333797231528791 54.617997537846321
12.372058354680215 90.196314607447988 53.387911924618848
17.250015400971655 89.868982259888341 49.991411478812743
22.256679801616531 89.972014894575125 48.566970553619420
27.273131838441913 89.705986193380099 45.266399938707032
32.276679501050992 89.553996271878191 42.587054451678569
37.253734225628214 89.098384049876032 36.768172118375844
42.263420984414878 88.374612794092130 28.093484951265022
-87.476400477194503 88.794876197060944 23.603662789226597
-82.512207544319793 89.364711978724117 31.265854299472011
-77.462595756003111 89.868020683677472 37.611786036195355
-72.481502006986247 90.168237330453579 41.336588993458648
-67.494358935856852 90.211941915496297 43.355451018239769
-62.430190324062373 90.519327956654791 45.280494662169659
-57.525464180160796 90.376381302484972 45.380490261656938
-52.419212691284969 90.423246653165961 44.712305334272095
-47.555971370435678 90.409156529398203 44.308624009213467
-42.557807046500919 90.216352955268334 42.611044905463260
-37.538893913045356 90.346156506038213 43.710756212078458
-32.435386911997945 90.345773198929237 44.360760793362481
-27.435416074268339 90.486130571855313 46.108758358782858
-22.442957428456712 90.922261535650136 52.610927007519940
-17.457872166022614 91.182477386233614 55.499941643262247
-12.485920118100136 91.189572907162685 56.567576982805100
-7.392498473509894 91.224190533273486 56.702821834848102
-2.427775128977832 91.243849303672775 56.186549396510074
2.458545923780340 91.088840229642273 55.401508658143271
7.568830123668574 91.003861451559715 54.263210162122562
12.423737514759534 90.976751110570817 53.120871641122910
17.517649851628416 90.754767698635376 49.193229439462776
22.492989327837527 90.639377767087481 48.204736371276937
27.461451782528879 90.345255145619973 44.968967452731782
32.532319739426043 90.206687211499656 42.271170497534150
37.473495241441732 89.812893599491417 36.211950892477155
42.564327288754917 89.000664697250855 27.096493205951500
-87.716168248182299 89.613125685520217 23.763454987189622
-82.662404800608755 90.093875658361839 31.008905764702359
-77.757745098475951 90.519688918726970 37.243386697746317
-72.713040092968384 90.874273474162806 41.270008917465098
-67.779901263337209 91.044712729411756 43.159015557503523
-62.698306463203053 91.193657397687517 45.135861645598027
-57.669988316570766 91.099864042200082 45.397297928584116
-52.715159634686479 91.033017355706036 44.472661935888624
-47.693584300611192 91.001249501775604 43.800864686180894
-42.792680925138946 91.060358065083875 42.717765951196895
-37.713302580426614 91.045139265574790 43.690245465353712
-32.758414110301032 91.081954130065014 44.450775609590302
-27.794043854241036 91.155912257557247 45.158150758932237
-22.739744672240910 91.695052556630728 52.040702203186292
-17.751124019551650 91.823667899144780 55.068978857228466
-12.870410455932209 91.859387128333168 56.432439006767666
-7.836633207722276 91.852324656357709 56.475832676436575
-2.782611898140321 91.795619682521334 56.096757773983811
2.383388546740134 91.803502687317220 55.179244843132651
7.244569391284869 91.737384349677811 53.968986721625299
12.286159984890942 91.630703228427137 53.004559713375492
17.315392069414205 91.491273702460660 49.344419293675720
22.329968480275500 91.409040522589763 48.009185300720603
27.291917802824404 91.076379390497991 45.127215517032042
32.176727267553417 90.910252504939535 42.347261846281498
37.153799598465689 90.567987786732189 36.783723244654333
42.194753714350412 89.846962767695587 27.560625197321603
-87.980675298625570 90.221140086209971 23.596839689294100
-83.006568626949885 90.711707851158408 30.731760552292887
-78.080798727925469 91.283823194242075 36.976446949869555
-73.059740038948917 91.568643456998871 41.094558117486116
-67.924158739278283 91.720066121140150 42.677679320605471
-62.960012987431966 91.850289787949052 44.918624765650584
-58.029677642909348 91.910905793237987 45.380146596663728
-52.975119068039767 91.835717035042734 44.216986901085086
-48.030651528466628 91.710179537715149 43.748293450271348
-42.980413437146630 91.632184493532208 42.744470384093773
-38.061682351733204 91.737980520921766 43.577549658052973
-33.022635182639448 91.797366801897311 44.476657765399260
-27.960747015887321 91.662813038391761 44.480480555558259
-23.013512780083040 92.343785667402855 51.153408528040920
-18.050373635508578 92.566946877222819 54.449852972770337
-12.961859293450242 92.504327314191926 56.015525933262992
-7.942743095227823 92.594167995003914 56.187038057496068
-3.122952781363378 92.512633841092565 56.081036395846674
1.866465183702139 92.505213858082712 55.352345340765730
6.960277115665439 92.366539321035731 53.488816186219786
11.966939098687162 92.355857898223903 52.603683371765214
16.908858940059027 92.095989091890957 49.370956433919460
21.954881442946657 92.135858693999737 47.937455324532642
26.956140947051022 91.790083245682439 45.551956701312655
32.074916334080250 91.633000737935774 42.082248076435540
37.077194848761643 91.164913787600653 36.922342322137119
42.125470182187826 90.624709946218175 28.018644092295006
-87.796583233718849 90.972133258728888 24.183914205079205
-82.687239555332681 91.487708070118288 31.082921642237871
-77.836453837371891 92.123071158327832 36.978491721251586
-72.848018942134729 92.237226110419044 41.198236075937118
-67.703809707165078 92.330868201768169 42.594428060129616
-62.868820309084896 92.565798122045905 44.911403971411005
-57.683144555669294 92.629170190361137 45.456754726651504
-52.761556664186529 92.371748902396774 44.010426030170898
-47.727782459529095 92.379997376617240 43.766369154431402
-42.784179598213619 92.377645618074510 42.726068609109213
-37.691029207307800 92.398291246205019 43.597969729264122
-32.781093471415922 92.493701826807197 44.327791675982546
-27.773159708479810 92.546287870613128 44.557652934980553
-22.632994128106255 92.808830205752130 50.778006067817451
-17.800527462587628 93.142795170067956 54.034471016088588
-12.710846672539612 93.167129944189782 55.509888713859212
-7.633966736702354 93.201454958692423 55.837861269672317
-2.738752335321124 93.330220842621273 55.837883078338649
2.211512905305636 93.110397606427739 55.161530571740442
7.269225230567948 93.075513559709947 53.093584202958709
12.244770927612025 92.947466440169762 51.984330686702400
17.239458213845463 92.794218560713219 48.560850836575653
22.242568111914160 92.712782317256057 47.859000907836780
27.293670538076075 92.557507229255648 44.989567518758470
32.299518132480785 92.317359001392447 41.747444219567889
37.235269256230708 91.911364159699716 36.453700165560114
42.265413187376232 91.188479824688642 27.318844029409821
-88.034332200831003 91.776829285339588 23.819828016641477
-82.963144084935507 92.315418185103354 30.983989368466748
-77.916565319421323 92.508723414812053 36.479877017268954
-72.974809270999046 92.992046119333722 40.880308628498149
-67.975612748488899 93.205404889854606 42.390666807377023
-62.987971806112562 93.215095098434688 44.663214025300242
-58.058083453946864 93.189501165306993 45.316353538005231
-53.031341817186558 93.234085605603724 44.019170139336531
-47.869277360154442 93.156443865300346 43.814515125872390
-42.978271623804858 93.078549823093283 42.625704665701406
-38.077323940299451 93.182807072827444 43.666099655498648
-33.137278234620375 93.234880883277384 44.530306067294688
-27.996605961276483 93.151317642652714 44.660139485114534
-23.008454198183539 93.573743485606713 49.293594500502756
-17.986941310081839 93.820597110663869 53.522504691854813
-12.999195259918872 93.847082142933701 55.014383584884918
-7.990906692140207 93.866531936301740 55.459162464864463
-2.972849546217437 93.833077984434368 55.454291874283982
2.087019553352744 93.833597981028589 54.915038025912587
6.956596467627312 93.840326868541993 52.765483858505739
11.998349127761500 93.737053530772471 51.565174719238847
17.149904939846280 93.435851690005279 48.578607481227287
22.007876113666324 93.477400110156609 47.776839479976985
27.065145800500662 93.184162327848028 45.216130227307659
32.061217301332725 92.950064715647613 41.696474205542067
37.127150552401417 92.735288629526636 36.466086398038371
42.035397536591695 92.019056298254540 27.638489810315466
-88.294351628265488 92.476754222889397 23.371487557602379
-83.240294770593422 92.959073007680104 30.844696990594009
-78.257088347462002 93.287943802129377 35.971063396849168
-73.203951217988646 93.630507088457691 40.750638826150841
-68.173015195420987 93.796040343426967 42.409030354049889
-63.307074732824148 93.880970809974713 44.408481626814165
-58.285344819315092 93.986109454566090 45.130018742084523
-53.275919287091426 93.920693937823671 43.954155325594250
-48.336602263653305 94.002755191480901 44.251292747943289
-43.253975661906651 93.674020820674130 42.560323992617491
-38.287617184276158 93.961787083052798 43.448570704440520
-33.330199459014622 93.866306783384303 44.544437744234784
-28.272764717195010 94.023840319191919 44.989892629908503
-23.234241406755913 94.220330837507575 48.570848520379855
-18.278546897017659 94.454947865433638 52.823452040452842
-13.224588524261698 94.487173979712324 54.130927196307638
-8.237080054974193 94.585872015829338 55.188628337998743
-3.196344662356129 94.592041227122806 55.127896517811052
1.726400336377014 94.664726647493495 54.607579420819071
6.787403224524968 94.518973306511228 52.703741814604228
11.746676329997085 94.309891833849179 51.254776515521861
16.746804895447017 94.180631853022149 48.483478247647078
21.790357819917176 94.212217534362054 47.479623106619037
26.802494576817363 93.986936472324828 45.088657383066838
31.791313424324418 93.724716651499378 41.607798375099613
36.773304168339521 93.299963219784743 36.511786285762561
41.690382018592906 92.648420994191682 27.838979651181649
-87.922178949439697 93.214610250502687 24.022365485993003
-82.953172907594507 93.605828284849480 31.109557791714675
-78.048540189189040 93.976639157366407 36.052444886237787
-73.073212906490170 94.397524604734699 40.808600622803404
-67.977424886724336 94.382251833456351 42.230393507509625
-63.084884515664100 94.626435605966137 44.202495955729113
-58.111977222479830 94.670147420765517 44.902669919924634
-52.971219013445257 94.518679083544043 43.868029426694186
-47.982873810945428 94.530706599718499 44.330225164010443
-43.099814671151762 94.406104545417662 42.270897566915302
-37.906254356325881 94.509096265462432 43.383844868015643
-33.023475781601057 94.587832689213329 44.452738494494177
-27.988872412034716 94.579914244402573 45.230906067721776
-22.953373654289706 94.860752376153897 47.730230825600103
-18.025554576669279 95.086672343740759 52.250100717538935
-12.944174854572456 95.238457803971244 53.450546654573301
-8.002337592532447 95.213878120227662 54.626939744788778
-2.929478738352328 95.217205687522451 54.518320895833895
1.976485956704122 95.288556771962092 54.384650780460753
6.999404729698592 95.145099432717956 52.275672117137255
11.936446893776909 95.052735246251260 50.530642361466477
17.069645719368093 94.916042286195662 48.078946843801234
21.971474150888060 94.813965236048745 47.419254981988324
27.114787360716168 94.697530695049821 44.621347899019376
31.979187213532825 94.297313101513097 40.933709780260102
37.049924917662842 93.952680484222412 35.738262988821631
41.934981657645594 93.429559429134216 27.058427247450929
-87.770210845522072 93.922428063176014 24.341659914227147
-82.798434123485265 94.431057416656742 31.525743207637891
-77.699933716015423 94.901989938906041 36.193572849311835
-72.750695486453935 95.117421218611241 40.886004008197595
-67.750872354367431 95.097598772480495 42.221705705765451
-62.769622162714377 95.259603676274011 44.035279291087676
-57.673144483240776 95.446139892537573 44.570968929623682
-52.688534048793692 95.201504772803176 43.764339653501430
-47.760854759388010 95.241903984395009 44.243399377732906
-42.717586668047282 95.256113613237048 42.265378498631684
-37.693716454569845 95.230589639514420 43.475598332439986
-32.713296709526091 95.307119660708409 44.691042710008588
-27.788216724572223 95.374495322118776 44.947485746910473
-22.765789439619940 95.370743759778634 45.722370902137641
-17.730604253886202 95.867550072809905 51.660200780622155
-12.663985900620377 95.743249234363986 52.816797526587443
-7.765358132041791 95.901787425119451 54.327165520700540
-2.833925306810597 95.855478836994976 54.341673461129353
2.252141322008518 95.933536192829251 53.593704030935562
7.330530999100964 95.834988660079574 51.812656909502266
12.214803756029912 95.626343322868550 50.002290548058006
17.312047807317612 95.515647870920006 47.876705950314410
22.122322626296310 95.566308705234789 47.116949228311647
27.209040684160406 95.224356049489430 43.969144176409202
32.298889366745911 94.921182044327367 40.525709907051755
37.251301416068870 94.589650283098067 35.008697911833515
42.258636204828107 94.043018373829696 26.424674066598236
-87.092716684224712 94.730843639584990 25.836613621000172
-82.007919921852945 95.238538410553474 32.428627454446982
-77.034309152464601 95.510012504994208 37.094079196227753
-72.028003869141841 95.753049490184765 41.109955389303437
-67.008958744336155 95.901584261549829 42.252696050885156
-61.989061532540724 95.879687950627627 43.716869449280473
-57.090405487891232 96.084202601739065 43.994535267381060
-51.927084989151851 96.008398439365038 43.837154651681423
-47.110631362971802 95.792995557933267 43.654230866895006
-42.165464036994010 95.919497427512326 42.068431240170518
-36.983595002429460 95.978668219113132 43.468157292059196
-32.064727847469214 95.996643381728475 44.785667692888666
-26.949061859448335 95.987837367586451 43.858892850838856
-21.945071455212169 96.152196970328319 45.485211685827032
-16.995335401095662 96.388407145934508 51.082078481626937
-11.993278506723980 96.417921736920306 52.272580123230711
-6.935713714957796 96.561587060663271 53.755520975828261
-1.906887528232337 96.600213774372435 53.741951541924493
2.938632303116746 96.553221043301278 52.927545433709547
7.967753025450797 96.418258154668649 50.958833337246439
13.050930669330373 96.279073481060735 49.305572789118678
18.000570043045013 96.400297222484141 47.634685197210452
22.974022434505112 96.136880962971446 46.545109042046683
27.934836434004875 95.963867084779622 43.178799453792877
32.926161458485893 95.730298263349283 39.585348190140223
37.977987674986352 95.195729034547227 33.274482606180051
43.032662219415940 94.637698998158058 24.382649757162497
-86.246997438926442 95.598170936858196 26.896555499490521
-81.383533909989936 95.963180908211498 33.205651644375102
-76.263378151441486 96.274767217358033 37.665574397212325
-71.254593017274303 96.529209473870964 41.314173771588308
-66.297514579869244 96.554792949583785 42.120450290534549
-61.225672992029217 96.672455966536475 43.588145628202703
-56.283712974220258 96.675960599959538 43.409585229201923
-51.268141474142986 96.647172042522087 44.010712810576855
-46.316453234708668 96.708312251873295 42.991178500987900
-41.235069300906908 96.569121524430400 42.086911525544032
-36.247644040702120 96.701370144543034 43.357885906602860
-31.273324932612898 96.698127690012072 44.838591775421143
-26.244856630779477 96.728249412391762 43.547059081440359
-21.272624417232390 96.831316821530166 45.182353711043000
-16.273678114237814 97.084251126125039 50.319008010788146
-11.149604432564725 97.176017262595451 51.769846667986606
-6.349658425695425 97.248792700949863 53.121461285089701
-1.216818748708976 97.237977407509021 53.273769362712905
3.725230844611489 97.143136948085228 52.280534514310183
8.715663768511460 97.141346594502721 49.723319342906905
13.737762805334874 96.973640037412082 48.566103664801652
18.665843297422111 97.001121698999768 47.235143021992691
23.874998172878374 96.866373931040314 45.930061070171881
28.715379485418364 96.452437436069587 42.427343251038792
33.752389363577592 96.357866904527228 38.574243214025515
38.699238241879648 95.776054752280288 32.280133759490987
43.725354050739689 95.072889176970662 20.337923044085930
-85.432920052701917 96.359826471435440 27.830039067905734
-80.532400191822262 96.697013056110563 33.824213778804733
-75.433033822752222 96.987676658160026 38.057669066257702
-70.503511335819141 97.215557207569219 41.333283875197992
-65.526783599918673 97.213309020715414 42.085483860953424
-60.557281509110261 97.405638329484276 43.243956366966252
-55.484416452387826 97.315037779372190 43.194100645982481
-50.559314291864318 97.442511250341738 44.078632820470922
-45.554173908517591 97.338137327845061 43.020710774602342
-40.367992687862852 97.240278315841010 42.087542657361972
-35.323185070371785 97.307413228667627 43.312940877071192
-30.568140264759485 97.499623694153428 44.598316840706630
-25.519481017866696 97.488813804345455 44.147438430854002
-20.433101316917018 97.474406333489782 44.883652515819549
-15.559130684065071 97.715077357529353 48.932951668873407
-10.493018949874616 97.886934352242406 51.461716514734611
-5.571991013306585 97.871938558848584 52.337479575848278
-0.551267299520876 97.905167646391575 52.578885190333452
4.425115556420067 97.877776671748919 51.177597489365112
9.440163752058101 97.779765386275670 49.095877197170068
14.544502831478656 97.675757607117831 48.082661838477506
19.511340215893931 97.617234309993492 47.012408446857215
24.478059017024336 97.490345864924976 45.193659657529977
29.514026025233132 97.280851939301158 41.769594752154056
34.442673231702649 96.993113266331832 37.444701311319520
39.410316904513699 96.551185726950195 30.298459204472390
-89.728639049502121 96.187725456803591 16.379325632804989
-84.816440671963036 97.005883867536070 29.016784452420747
-79.743553698555459 97.481715426892023 34.283752430450008
-74.769457256154936 97.707880843052152 38.605838535396629
-69.803840436372838 97.905712294747360 41.337587654220570
-64.757818083606224 97.916185376805601 42.139118488835031
-59.803431538051939 98.093170244459657 42.765934753160124
-54.649087941377125 98.092479551110699 43.026532568402530
-49.769284362685823 98.043419059790850 43.845817491963032
-44.840996687352977 97.975823601998087 42.684109342845936
-39.723714062406536 98.006323020445677 42.004216152473589
-34.697609940511320 98.079352719779479 43.438413038905388
-29.756908324129856 98.106640556337624 44.196771091493900
-24.727475758733078 98.159061691584583 44.630425330158481
-19.724079338912304 98.216682935428821 44.570540186806504
-14.733133773495554 98.397915496519786 48.219283947157997
-9.767967175671053 98.520021954158807 50.943355899417618
-4.715031166578306 98.510781891063388 51.747979575272325
0.229009635783296 98.615797970044440 51.642010603951810
5.250534599488769 98.533627548832982 49.930576824295144
10.236157933623948 98.336151042664554 48.686385877394052
15.181230756069715 98.398381275176490 47.703401831103029
20.189976987292820 98.285184159591651 46.754682603320340
25.343770839559927 98.093471492058185 44.162484979140515
30.199612336173139 97.937863106208084 40.928366080709459
35.219375978165843 97.519989605935123 35.982135104214507
40.275168735197596 96.942869402527251 28.455209204614622
-88.589545806619768 97.422054538960268 22.271250572219593
-83.477353075347267 97.895638593725465 30.151255467512758
-78.552258284956196 98.219341817612786 35.187572920350263
-73.508753781601143 98.460418218123380 39.160087784430630
-68.464084941147817 98.626130549335301 41.456960535413650
-63.489835715719870 98.759929667462316 42.225507453087154
-58.492260788073878 98.705236849867319 42.732786210273524
-53.451392262261955 98.747647824058163 42.700287693527791
-48.537141653594453 98.765551332647092 43.535501974604990
-43.537264248879133 98.832212020834888 42.343914754686928
-38.506749884200048 98.650145781768515 42.004404485979137
-33.479698571191491 98.742244605028688 43.734529671666444
-28.625165403611483 98.815322917926579 43.446001433527599
-23.639321189582425 98.828085117575995 44.793894675341882
-18.525848937590823 98.787828881709189 44.464776412769460
-13.533145997058007 99.090167172774485 47.584599892855614
-8.450055744326454 99.199901865772759 50.379255950815157
-3.530027831423900 99.214576757246789 50.691883441427734
1.420610723889655 99.188254743796122 50.274738265169404
6.498842254745077 99.029206519572540 48.202133626333541
11.537872260511399 99.081925692787379 48.246621100156055
16.554390965054580 98.995885889139359 47.074744415852784
21.543400199914426 98.950232809597665 46.151110470042326
26.490547897938285 98.737861840905381 42.440111986956744
31.474378233458186 98.466839561472995 39.488088842177305
36.482283873274341 98.156088492979649 33.357105892804150
41.530435522985719 97.546441302376735 25.546522089080593
-87.792234629256797 98.089962753473799 23.369529352656198
-82.779856920648271 98.569204790121589 30.845656945027098
-77.640937599678452 98.927718120836076 35.629930806572560
-72.745834917573887 99.195581475167572 39.491102801807720
-67.775496792893946 99.359532997306886 41.455799329438491
-62.787451234411307 99.330153668703460 42.353941971617537
-57.776863125026011 99.523157975999695 42.936872618232492
-52.768015182924145 99.331453575947762 42.612172061401026
-47.766526827613802 99.478779319414016 42.857331484568107
-42.748673500504083 99.383037418225143 42.118536871673506
-37.797417776135340 99.331012810909783 42.028764608041698
-32.691565000904369 99.506008195983156 43.467344216948874
-27.749386461947239 99.544198973872469 43.347244201216384
-22.733755989381145 99.630849203907303 44.594854275931787
-17.672895464730750 99.477533782814376 43.894376774378884
-12.774405708232882 99.653245074411174 46.014894246945460
-7.796671694073070 99.897066630261435 49.428254609114539
-2.764688934527001 99.898760921182443 49.607394468167044
2.187826263936829 99.819606062103233 48.742799795920966
7.330503959300684 99.746345399119846 47.591008303634815
12.167976140964488 99.694538890778716 48.165897093901222
17.078813346313396 99.704028420379743 47.193221943800587
22.208527032739489 99.579576157613971 45.430853202822384
27.306691427061438 99.384609909892049 41.877539578752966
32.152863771585722 99.208202485885707 38.061334179720127
37.199917263420694 98.740996416138557 32.328932535737223
42.211315416110544 98.048848919457654 23.078061941808066
-86.999133385544027 98.908627233699335 24.582847572238624
-81.969497589780516 99.475618081356856 31.212878887243320
-76.949487563481838 99.768131487103133 36.171004293383689
-71.958887669402699 99.918884298409580 39.525928484064579
-67.079773819749562 100.087545938405711 41.582497400326560
-61.964966539350904 100.205020208802907 42.477727728584966
-57.008150885094004 100.217131715208041 43.141693851303309
-52.026677095309964 99.993635532245960 42.601439231672501
-46.997133734411527 100.121489413832705 42.370187920095738
-42.017675915291882 100.062481636972961 41.521339831319594
-36.985456372177232 100.133723426710631 42.020891519962248
-31.957380076786315 100.082153175774650 43.419825082640820
-27.035087512429332 100.242904797500486 43.745962082349585
-21.955627552178878 100.182421299198779 44.343904228447123
-17.032649499899836 100.260559877740889 43.771411069922230
-12.025904702397664 100.252232428599243 44.590146040585552
-7.084633015833242 100.596854542335336 48.370182829043628
-2.050731701697215 100.501975035915265 48.324899442651741
2.952653832448588 100.337048123771169 46.437008286658610
8.025536262455702 100.560691089691389 47.581572285884306
13.110141615257303 100.478333822765862 47.941391154085274
17.973983825430217 100.385599146204683 46.672588707150346
22.982106485064399 100.324331911512843 44.505906791347314
27.908074707954267 100.034015760233629 41.367011098184676
32.981456943157433 99.776029816460834 36.942147338656056
38.087088497671274 99.406105179988529 30.794760097479003
43.050501395135448 98.374261039884260 15.631191742525397
-85.717745040368115 99.822707782934017 26.565644254525150
-80.813959932499728 100.172008035393944 32.264837734532676
-75.718762405252946 100.554506564383075 36.619953398591292
-70.675051566009884 100.812959680015055 39.805680270833072
-65.757659314230168 100.845423080320217 41.687438673137102
-60.671593502852616 100.803617197260692 42.495310806216970
-55.787720524063417 100.944262097267710 42.889737206090594
-50.803852348073065 100.877573566276311 42.491885351087667
-45.747296786520408 100.816243353295334 42.106906043210614
-40.750410196449899 100.729680412448275 41.080613765682024
-35.714427799087190 100.844778168233617 41.678272594285545
-30.742948363378346 100.931679452165667 43.173570262885669
-25.652474348075003 100.894078411021113 43.754019051925141
-20.693193918622811 101.052546615599240 44.261063934455720
-15.684671644873902 100.854759655910996 44.006263299712728
-10.805064840129209 100.925646676757154 44.350561071697690
-5.618138228422856 100.986752497941339 44.803630668781821
-0.646239230597625 100.882596318913002 44.587742686338736
4.172523939297663 101.099413272991825 45.786144887234094
9.267054456810349 101.169959268939579 47.601180028406354
14.251409076488123 101.163841441325587 47.472537134602106
19.135851645238819 101.086134010013296 45.971979925195811
24.235970786621738 100.875396319932719 43.283647384475657
29.273145756013975 100.750779065333930 40.271828727268044
34.179769600799560 100.310229159522351 35.401227961711129
39.223265889505250 99.870323784133561 28.334088569297002
-89.111197592195296 99.996978612944318 19.444776519291064
-83.948177823824324 100.714324097969154 28.728759309371274
-78.992229616828880 101.024716029809383 33.708597623580694
-73.935252401320199 101.214571490940841 37.642759969949651
-69.108098875964515 101.442748908786712 40.228320256405731
-63.884955479303954 101.443253250997969 41.999888511780142
-59.025916714754842 101.483204739109070 42.633955882004557
-53.927143700947397 101.601549505042101 42.145597851301055
-48.976337173420589 101.601301701167955 42.038573563104336
-43.950210394110101 101.412415194252631 42.011912344180992
-38.932987033325986 101.471431824761808 40.863436088751158
-33.971743423427263 101.512061050907732 41.830569969076890
-28.947328936813090 101.542171660364474 42.770205385030174
-24.080157743448858 101.692252289361534 44.077988216970930
-18.956168029794007 101.648812236473262 43.570616047140291
-14.128339492614069 101.457682781056249 43.562181970970542
-9.051489074005515 101.584238222207759 44.042868694155509
-4.010809069734800 101.685001930189657 44.013094193605426
1.084822698673239 101.688943308410046 44.335299349967194
6.006068340059747 101.765013812560127 45.928079349324712
10.900208520451306 101.945525915711315 47.379673399510281
16.026744992759678 101.738123616140641 46.678629810899146
20.968658860263314 101.642009256134827 44.712469872208189
25.969437930507322 101.548909662973713 41.643654294366435
30.995919600341001 101.272325415414969 37.887702950630889
36.036521418955445 100.920813791797102 32.792501314803452
40.963848554490880 100.414570070998266 24.001056920737906
-86.215519222813924 101.218743809632358 25.116783485461880
-81.140924338699591 101.562597690208349 31.227406502850052
-76.228955140179494 101.849216658410228 36.006443806318423
-71.387193219950234 101.905365301050338 38.894428562371914
-66.210032366007297 102.160578167749136 41.073358587529931
-61.252295947614975 102.139628920955161 41.938941444514128
-56.240690833921718 102.185084510662762 42.340014442737719
-51.256462522894751 102.314761314805409 41.569997746779684
-46.242016404848400 102.177452393156074 41.717030786212014
-41.233650959090525 102.212351931117823 40.767335597182949
-36.275723743554735 102.178609816036357 40.978796496728094
-31.243503205835722 102.281277067174727 42.212410595283195
-26.210647971314561 102.249689046681880 43.126599415492166
-21.308723350578322 102.420635512169071 43.885963310106376
-16.272284864654431 102.376688588357240 43.888968805523092
-11.153779371845237 102.335971284480308 43.827719187329592
-6.242359593897361 102.261187261825953 43.722141501514869
-1.257661906389926 102.359586683335863 44.188768504045349
3.714151097783471 102.360993913371004 44.337634133941940
8.813982525234152 102.460825534150047 46.460964487804802
13.815767078253206 102.451907211198005 46.720953684742639
18.717988599156158 102.477904572569756 45.401964394665768
23.680780052293947 102.289923026343203 42.703698716146761
28.651249063835476 102.146453890418130 39.434816885618865
33.870538115455403 101.725590811972722 34.954545227296691
38.798691863122379 101.317372445922786 28.722143008193289
-88.462003082178327 101.359747562326689 19.270961875954363
-83.484704505483975 102.097522060337909 28.631235443355873
-78.471884759306377 102.292562668790737 33.593573606808107
-73.510810164824989 102.706450924504125 37.564340274754549
-68.566760900698640 102.777110885759114 39.821398370493981
-63.485481614806581 102.948928026480445 41.569344732207128
-58.432484781557690 102.837382493864482 42.011058518669557
-53.424722023480420 102.977077154019284 41.353635534784466
-48.516686947709651 102.907305310348832 40.988461705937965
-43.573975934912454 102.866378674729447 41.604999370391340
-38.451731780570057 102.842561822710010 40.339038090637466
-33.387692779575374 102.872351061069921 41.357118816419508
-28.488444275628744 102.947542047549135 42.354890961799804
-23.498114469223367 103.043690455338250 43.491150504746791
-18.462914583920373 102.971269071323505 43.559872994988986
-13.440400602958089 103.007481110396299 43.590541475435664
-8.580131207705419 103.112381250138498 43.788976986327697
-3.570874264604002 103.101895629058873 43.946654726892866
1.540737077605252 103.092227194914969 43.980485493753299
6.577053768869087 103.179846026331830 45.044145289191150
11.491198073368984 103.221716131287451 46.538751491430361
16.540589618527804 103.175097736667070 45.792804903057380
21.497821918097344 102.992927564494394 43.501218475978277
26.403599081423398 102.914814573775544 40.159611495368885
31.538107391390025 102.577745590790158 36.493904363440286
36.474016794072170 102.274367382171334 31.079000546400831
41.577307030334943 101.351075372012914 18.018503775822523
-85.224117974258519 102.621467294002855 25.952759926547341
-80.296844777886250 102.887688967906996 31.746616600541298
-75.218380817247450 103.394093927611152 36.405977064221332
-70.241897346161423 103.420647807056511 38.713411978456492
-65.227725123883729 103.513957083683451 40.695461730638861
-60.157312952796183 103.688581450035826 41.524289297395256
-55.220635565356808 103.533245645590313 41.534500439467848
-50.235258291037901 103.535419116806111 40.750614216738455
-45.322216789809680 103.639730348260741 41.586780508841414
-40.162729487015014 103.499818538387203 39.949938432919360
-35.228834292144882 103.563544527519539 40.329064278989982
-30.180660862990404 103.657711078037735 41.625847217108443
-25.234400626217759 103.753916291253375 42.631096201163757
-20.228227692396608 103.746437811630486 43.131776964620194
-15.210534849392026 103.672037549274478 42.947584406944401
-10.224891329067141 103.717494765112718 43.624558436149499
-5.283457511141670 103.794927251310995 43.901694250300103
-0.367503869856212 103.856762138982347 44.110783441159796
4.840641358848590 103.725917945569819 43.507599991503476
9.742817168664921 103.822817437442026 45.347086387141523
14.727985328863904 103.817027355746333 45.573286507127300
19.685589449612596 103.692737184976409 43.997182515660484
24.691628192159961 103.618616905437221 40.921259869584539
29.766807411673994 103.357278072936751 37.144418330564179
34.742684315146697 103.006583031133857 32.892086518690888
39.796880414066862 102.651748778952552 25.840018845535340
-86.457874873602933 103.128772035604953 23.095808376508611
-81.467006748277811 103.657679632803877 30.207475170152058
-76.514987787596269 104.018182535370428 35.080526697656559
-71.503358486557133 104.012330991788033 37.910305695061318
-66.465823962220583 104.292101499852564 39.930584784961248
-61.645224013600540 104.258601755701292 41.070046666052711
-56.432909911901973 104.200968743108774 41.502107323250343
-51.548228757595169 104.297057912894815 40.588457570751679
-46.447919050772775 104.236733600562175 41.197817416893692
-41.476236359752185 104.186992076413617 40.295084299781792
-36.586326113810571 104.234203698693449 39.772034430246180
-31.512457523837753 104.372418687305242 41.352065534861389
-26.458566985647245 104.285161574482913 41.790919308404142
-21.500993598063378 104.433692101011047 43.013298536636377
-16.511896491471056 104.401017380862484 42.547788661873405
-11.516617629652005 104.522761103820287 43.393016111490269
-6.403395325978478 104.520837986125500 44.076521814745739
-1.501060875157556 104.413861938086853 44.224633036525667
3.451550264349347 104.333622551960360 42.848146140715137
8.488037360576758 104.447570892585745 44.201550674065182
13.572234905197659 104.597811618426405 45.058490871249838
18.435292420184403 104.475394736579744 43.893582002449989
23.490841741678025 104.217173078233401 41.471332987719833
28.474191054986260 103.989275935981468 37.737614424559979
33.503690137516067 103.819298166483122 33.814211858553456
38.409455955656860 103.409490248110743 27.684447187317428
-87.298028629383623 103.689182855960865 20.076335250342314
-82.225688049681963 104.363378312898860 29.185052883440250
-77.161354402219729 104.561442777790603 34.156824319964556
-72.271327875868934 104.781332707844896 37.590417225603666
-67.312734447428468 104.881835462634314 39.259804156846933
-62.235472095678311 104.944679360470232 40.586225270519911
-57.209976680521059 104.892679659761484 41.273270704474641
-52.226583470266164 104.997736806690085 40.468455949676446
-47.265976583606609 104.977327383918819 40.746551114762617
-42.240884098018263 104.966244733109718 40.570460375221998
-37.224046009173705 104.853290142705802 39.187416194812116
-32.301585613357425 104.969909531084411 40.420851307577607
-27.162030843869474 105.015212793857572 41.316682820194401
-22.271868758270291 105.097525047468579 42.755962325638251
-17.115245763661420 105.029462861546151 42.711464138444349
-12.257767973645644 105.131150742294977 43.348446202589713
-7.299317468470480 105.234360759926375 43.977188911170664
-2.200413784813511 105.188682397618280 44.201815456882279
2.695428421998034 105.151380930308022 42.816159053877470
7.690741526957049 105.196781716916021 43.216962688724578
12.845028333683784 105.189522807931723 44.548427373243449
17.805024887124485 105.193701867861577 43.597404683650353
22.756148913260574 105.031755000716259 41.514176784429935
27.648848243463924 104.739568667301441 38.070279872631048
32.758402899177000 104.584860732878766 34.228716484732196
37.781659021388108 104.179218243177502 28.371514452518138
-87.055649527146343 104.510209645536264 20.302299086015406
-82.047610712652784 104.981468026183549 29.115669503965545
-77.058609033903423 105.260788688847100 34.203153249369628
-71.964907173313975 105.489962013356802 37.598693089357567
-66.994671792639409 105.618436999138723 39.046850066185456
-62.085397878621293 105.630187528086495 40.144636604684464
-57.096455110074999 105.595673318614303 40.839459534587945
-51.951412501234792 105.606594371855905 40.010014303146455
-46.971920185634062 105.659464380040944 40.550378086023798
-41.957446334457472 105.607462190337429 40.141684624439904
-36.983813844036554 105.489192596699667 38.825198101007395
-31.896066722241098 105.536771603451967 40.149787525988145
-26.958906133548624 105.791567397234431 40.968477266644030
-21.968982025955075 105.854585760259255 42.351657158508367
-17.024258335033064 105.807664635827521 42.359719119598019
-11.983138477863081 105.877323691416294 43.202265916576415
-6.928445127587819 105.935299677867022 44.098182672612985
-2.040111343286727 105.912762438833226 44.206311893247801
3.019435037119919 105.848520814677059 42.625105481439270
8.025688420641290 105.791464734825979 42.285985280635330
13.081266550709646 105.952934663316356 43.735782017229916
17.964969330864292 105.859188499787024 42.883618167802496
22.993918265880378 105.603899166281010 39.559856217558398
27.989811807488344 105.531946560052532 37.596455190074117
33.036222427133119 105.251445346994842 33.444658479088204
37.974637806089355 104.752046507695752 27.566819805165913
-86.233708452746470 105.173782975689505 20.836185469045823
-81.215305016096792 105.819000865335411 29.643411798659265
-76.232660913254421 106.175910392609438 35.164271452433333
-71.283922067575347 106.212711725382576 37.342359252381719
-66.371801374821601 106.259822820191445 38.856072997303613
-61.121052114590526 106.317535800650816 39.833327358241966
-56.273427754057892 106.369444953072843 40.263611988191073
-51.239395750533994 106.321003730174240 39.558819991844132
-46.241846773864296 106.304149059763589 40.571335066382382
-41.334109646980366 106.349791306845816 39.467633511626651
-36.235118257712443 106.301397776902974 38.662656846500902
-31.310399228483526 106.329134688822990 39.904875631542460
-26.317037245618788 106.446922408248327 40.865769445142746
-21.229292245426279 106.569812286562311 42.127473366584582
-16.348652125136773 106.442998087805819 42.299836115234079
-11.297322450488110 106.459801947282926 43.380771343584520
-6.317089755070151 106.629405222069522 44.171946071637329
-1.247467039173218 106.553285533407248 43.730445028205708
3.848773195932488 106.500384021786317 42.364982394725402
8.715636447259588 106.541957153793490 41.821521168172048
13.749895670599926 106.476930579223165 42.797241301643098
18.772442457067257 106.498808828512651 42.053200909033755
23.869542292612454 106.305624245133615 39.299782353237035
28.735718029590391 106.123004314722493 37.100197442274961
33.830666721797670 105.877248921662471 31.956512255196468
38.728946336027590 105.614737940928563 25.644338673834483
-84.081902567717464 106.160616577089641 25.600171571094648
-78.993571636384672 106.666559628550758 32.027379393109172
-74.009092666256933 106.933331556535308 36.943432693884596
-68.862137677162920 106.967362532654349 37.830285122642309
-64.049612555172686 106.947437541985224 39.208459760362537
-58.984224080620564 107.123738471009801 39.898554764196888
-53.949353667610133 107.035025654663215 39.839742131787808
-49.042336008699628 106.964177367584611 39.468434971707595
-43.979377511244579 107.057747274615025 40.039783141562921
-39.046162298520244 106.912017638752502 38.091812582023387
-34.023535351583014 106.987386070960454 38.755689040567916
-28.950189790579014 107.142992564482554 39.843751175869016
-23.985261226060878 107.074913425923896 41.362493091677578
-19.029557377796660 107.132760795781124 42.063631859469481
-14.008736239849073 107.396272054883696 42.958741687747121
-8.906531947376891 107.222985108759843 43.630084708043505
-3.970384253177354 107.293932171435273 44.048633165218405
0.940803504034300 107.337842019796426 43.044644352173400
6.042024630134455 107.174920652349087 41.536934840397244
11.031978175366588 107.153102715697884 41.781117395846458
15.944405552038083 107.134063326990145 41.967272617246465
20.943954699325392 107.069647944084295 40.153117038015033
26.014328457559706 106.970868635001182 38.352805929945582
30.933789330573433 106.773632289403309 35.046038529177018
36.011216295183239 106.359560217006887 28.857629547644812
-86.263330294547544 106.524591822155543 18.402475399665455
-81.220562783387138 107.068325809739576 29.145601079791994
-76.276191461894697 107.492084360725329 35.804742414550368
-71.197916071090987 107.498612321003222 37.178111937131199
-66.247090593987650 107.668459763805103 38.351938470405372
-61.240289977461359 107.603938785585214 39.041271457041084
-56.237666232402553 107.715097832125622 39.453891517387589
-51.262681980186727 107.660042038433687 38.815623977606471
-46.190551827499363 107.727489154078043 39.647598971581985
-41.288870050909786 107.661388125665624 38.581277946572577
-36.221972949539598 107.575260125771663 37.938653795526108
-31.328265235543860 107.689280175857803 39.037595321195894
-26.207999185292095 107.917805225363296 40.177220743368395
-21.260764545829367 107.796367807848711 41.471138411302086
-16.277598942109137 107.951336128299232 41.983702905992665
-11.323268820173841 108.059043630439191 43.130610479475251
-6.200640560722353 107.978890794728358 43.893140709318693
-1.319885597736486 108.013406556864112 43.386687722209260
3.731678880775006 107.927208532507905 42.261745493261500
8.652559571809997 107.875350202889820 40.810554242550630
13.757043508884550 107.793815502912068 41.438495465230396
18.696400460439669 107.766170366763774 40.389008439136305
23.802294067826164 107.741114454202432 38.985354962857613
28.756241236337630 107.631521055224454 36.742702150075935
33.652138234928834 107.151707096392499 31.246326125259564
38.729419972991174 106.724430685239497 22.155963340691130
-82.987110199476930 107.674650393679826 26.358485003607846
-78.069467986316283 108.142648173818813 33.747495698210791
-72.995170767558221 108.349726624799388 37.559984104815761
-68.049170566991322 108.312242511493480 37.512888294613369
-62.937398023339725 108.392816638665550 38.636860181412082
-57.968794059787577 108.453259864174484 38.769533072486595
-52.974559856511441 108.341806992048973 39.010572885984473
-48.008180960600420 108.434394570827806 39.051481265257692
-43.057359595808876 108.355672532716781 39.058521284789691
-37.825579141140771 108.319101975903223 37.368004506666040
-32.985544936490733 108.356661503195369 38.333535310385336
-28.087976371189665 108.483950068288152 38.971675647019453
-23.023890559565697 108.569754953182326 40.688720971687246
-18.026058446199148 108.480444091597803 41.575503135611314
-13.020225891330217 108.605468890283419 42.698884905114298
-7.985010893101069 108.648336731709904 43.480577978456182
-2.996388680301846 108.749665774701782 43.501380514371142
2.041108063522066 108.616190078100232 42.692823297480771
7.013902802402503 108.597838764382274 41.294130976677415
12.003175328082039 108.490715700874389 40.598434289862261
17.016650520387202 108.557685781020979 40.126164228117268
21.939567187974756 108.445596895612184 39.249963059307028
26.994682277615304 108.460554191164576 37.641425463443220
31.982895322093583 108.127584482451752 32.894378007473222
36.950134205213544 107.712015126958335 26.703715986755984
-84.306050041005278 108.182352162744692 24.331062117449587
-79.198454241575973 108.587812545144459 31.455626905092146
-74.290082940657641 109.052547019506633 37.835396749409192
-69.227914969975899 108.997570137904006 37.398975687147463
-64.298997000269040 108.969663787783404 38.035770781272653
-59.245184170364901 108.953214669573271 38.246074085836433
-54.352253692390853 109.067480080933890 38.481640596373545
-49.278408455365707 109.150181401964119 38.593942929640711
-44.242505176265396 109.101841134824184 38.679129467848320
-39.211498594216110 108.973265669118845 37.363111903048178
-34.254866749088997 108.977574916111749 37.633244924832375
-29.219252585495003 109.135151540746506 38.412459518222740
-24.223108355770513 109.211389038527031 40.013821558919517
-19.213060625677230 109.245707491561518 41.062303096174389
-14.238128701230576 109.510085577075699 42.188506066321743
-9.238171018573786 109.357748466072721 43.101675609787300
-4.177386638980474 109.369007908699999 43.165480189297099
0.741954141475938 109.331876573236357 42.699836039431965
5.827088026712198 109.303394382523521 41.602475400823387
10.688348136425251 109.142491113320034 40.027006793012404
15.730572482432038 109.184113805326362 40.227140197806413
20.682676024544143 109.141181697977146 39.199679895708158
25.768501678805965 108.994605873527689 37.605774514454680
30.767508189649178 108.828107922597709 33.991860282669336
35.780589648269554 108.472324538316172 27.702552149944747
-85.507588808541030 108.793288781748771 20.551400921074901
-80.465366909197130 110.147114759083451 42.790015035097383
-75.582773529960264 110.164463371178087 44.361741494057931
-70.610953398140282 109.867353411836689 37.372959521685566
-65.612402035529129 109.753175788092562 37.560811047545890
-60.432212639687407 109.752309982940872 37.720763932007344
-55.563162323830952 109.744161855724869 37.891724066525072
-50.522671289387930 109.745240230620354 37.962139850131024
-45.593356001901640 109.779534602906736 38.287874655946041
-40.544700039152225 109.671354835708087 37.391977925595612
-35.515081826525275 109.767789219816891 37.135440382158635
-30.463278347252281 109.866180506869085 37.680607492445304
-25.415372814981865 109.833929218360282 39.044246893996302
-20.509573641160088 109.997442061536049 40.640033609358255
-15.587323023258222 109.973532138990691 41.658584881788563
-10.548715539990900 110.132900590531136 42.679160215509313
-5.436310862340934 110.022149293194545 43.020481192794165
-0.460697464288740 109.929709085485499 42.733403217349398
4.463859713770188 110.076830667689308 42.144338964414025
9.407663444870449 109.902499570705558 39.944598039394627
14.385293427939471 109.887323058446555 40.170367313555865
19.606234049782135 109.897506050421811 39.022990495431934
24.540602512625458 109.780713355924874 37.690221226766376
29.463232513342508 109.646376233174763 34.734029269391307
34.630467014328445 109.235087999003966 28.997914150929425
-85.695705206506716 109.320373474611543 19.060331596719241
-80.819718001568447 110.837373376888124 44.475599859715970
-75.747776971499761 110.916026059079527 45.344866560028599
-70.750627262695929 110.848165416449461 43.091208032923475
-65.739347506872107 110.536355496014693 37.607904997839881
-60.831516066754723 110.448528796991781 37.300014812498290
