ply
format ascii 1.0
element vertex 825
property double x
property double y
property double z
end_header
-94.762809660826477 68.174484784316746 44.635488181341955
-89.929188772039879 69.762180519171196 49.423827638198631
-85.281930615061768 71.291024184956825 52.143055409877036
-80.526700873202600 72.772460494281830 54.669341752664714
-75.582076707118631 74.172253452038760 55.067398244388464
-70.805046817930361 75.289765513681559 55.035073613807924
-65.958379011723309 76.721184446091954 55.490614791944616
-61.065929745664093 77.906675058229752 53.880021287552104
-56.276654862355059 79.187267256271383 53.208754035306214
-51.434433195716608 80.451349879107170 52.810370835193297
-46.683844261942561 81.832858565514641 54.013075780623829
-41.979220627484892 83.582065956818184 61.895962906182625
-37.232308369698423 85.155234779828731 65.471855945807775
-32.350339654330270 86.541989573961516 66.629474820878158
-27.495237251330593 87.765199911297458 66.966640349487406
-22.646222430471173 89.030941454561969 66.880395543121381
-17.965701253951142 90.372173606378780 66.477040656297049
-13.016299137209245 91.608560555624095 66.082748154548256
-8.263900762933451 92.767201111658210 64.892451056333059
-3.345923291761908 94.003540059324408 61.868772020608688
1.543969154164063 95.084468418908273 59.376400829753798
6.295981883971248 96.284103506677482 57.721859669139818
11.350208045419937 97.191397991949202 53.234399845090486
16.281311437079591 98.232017466569985 50.000530584510024
21.221486796876246 99.151786746755775 42.909470767216838
26.166466924617719 99.538756642277008 32.795297389400815
-98.371905821498899 67.430773054080674 39.338251121528415
-93.754225230308990 69.235488161432727 46.432892756650887
-89.102132511130662 70.777244384890011 50.388491949405477
-84.149300712662281 72.364935577708351 53.099596017823316
-79.414162551884829 73.704072006405937 55.159533465495841
-74.582122677706437 74.987774092622246 54.660950539677593
-69.726607535132914 76.382535992732073 54.990917582304213
-64.960258590369875 77.698688083231033 55.259469030068672
-60.012757873612713 78.737828142130354 52.893159542839783
-55.254185345642611 80.229940079371545 53.670935929268602
-50.355685041404172 81.502689539045605 53.511145209984022
-45.513795817607580 82.938806281227528 55.063481410401998
-40.897098928318385 84.691610087182681 62.915182838123926
-36.198471212123323 86.130699710864988 65.748902219571946
-31.299303193139814 87.398188022986375 66.974307473432560
-26.439449915086648 88.895289625745093 67.095993435804914
-21.626892154074259 90.065405017198103 66.731656762261437
-16.892382652402716 91.370643644803792 66.283815182059641
-12.049906821397705 92.742591415358376 65.666493295036702
-7.115595247448237 93.857302734648229 64.472397684720974
-2.339835209449681 94.846954752165374 61.197307383395632
2.575873835137468 96.087145175639080 58.996722547861403
7.352009816451364 97.114875906381542 56.415025512857262
12.351512191182369 98.242392628904639 52.912337575877231
17.284746297833987 99.172669488212520 48.319984125668590
22.226035737569838 99.866566792288694 40.424556955652633
-102.535424815113473 66.417164190413104 30.813198131855902
-97.872809751965903 68.408099721735582 40.481937079985528
-93.249947256551906 70.200335332586235 47.172241333432709
-88.612745020844756 71.765843509785043 50.879652478376748
-83.698587421807474 73.231568499716431 53.516217390976372
-78.886196162731650 74.730818472334761 55.363047749923709
-74.119151263642465 75.871369129531402 54.660036262350751
-69.277956311964587 77.288395730572489 55.145158035481089
-64.453907764677041 78.666031540766298 54.955827117897314
-59.531767163694568 79.656563243223374 52.440072812249333
-54.632810112197390 80.941926248041824 53.477766617381093
-49.886796890347043 82.427477119687850 54.131040737108009
-45.099010822170186 83.718788344524668 56.248104205910316
-40.306428498730028 85.555179126182765 62.964933982887345
-35.577173683412852 87.068284636961963 65.691697115370786
-30.776038212684810 88.400434476199749 66.872909814664581
-26.013770112766608 89.621784800516195 67.074401531182502
-21.026707448042085 90.906901498521961 66.379212351736854
-16.198780242803895 92.293604905981411 66.048442750664208
-11.459920001660070 93.420937635098255 65.145381781671389
-6.549616834468090 94.647762384354095 63.836142910508073
-1.680958535435952 95.756231735282043 60.595453008866450
3.122145852899237 96.969815630554436 58.753606249426149
8.034803306442207 97.955856936788948 55.678954250051468
12.858886280326807 99.129420913265989 52.821155587635602
17.923933578355634 100.043946779051907 47.100448452383276
22.823282546325107 100.584124576598256 38.476075457614343
-102.491068430910047 67.327911323692319 32.387602941737676
-97.859458702174550 69.126630372146565 40.775299713542694
-93.164335571983827 70.970952706065020 47.383077423953111
-88.383497843740855 72.517999222487177 51.220248697907536
-83.555077284817060 74.068170704604412 53.558970769781361
-78.798605323453700 75.445258775376260 55.333297538524178
-74.043677235132776 76.720670488853642 55.034142268116938
-69.202415196044740 77.978009743629116 54.835691432044314
-64.312971714173514 79.239572537070302 54.682694479952069
-59.538876840170914 80.490770598324019 52.605341393392550
-54.653053751833028 81.873238485360915 53.530866504967328
-49.761701179840621 83.144156429986111 54.332198824948328
-45.071807219279435 84.524568089992400 56.200296933431801
-40.262896892782379 86.380281896823675 62.901561310693559
-35.570303595700629 87.702024939801035 65.613637535842273
-30.706465147831615 89.180284529133388 66.769839216689391
-25.851680267058967 90.422119990939535 66.923706164536156
-21.079299122781705 91.661749707960581 66.208728025823532
-16.139333447400542 92.915966356754041 65.707495950483207
-11.437458265527631 94.270172904426104 64.615806501027990
-6.586167746360740 95.491830855232081 63.463794626557053
-1.610720426904965 96.522364308786678 60.103082069354656
3.208540372817851 97.654226743652714 58.481935633395963
8.112667624462397 98.723582660573712 55.280495540593101
12.947483893646353 99.812871162627417 52.608697474835701
17.894177891396925 100.582683836084541 46.731659345251551
22.915836906126295 101.367655119997025 38.033103049105790
-102.408367885277414 68.193846151755068 33.524261824350830
-97.820035232490127 70.058442331072726 41.295190517026114
-93.088770760301315 71.687644276215551 47.677866342891015
-88.419491404927271 73.190102994863750 51.434344967822433
-83.600902979902997 74.814558518588257 53.365278338111906
-78.671328766116318 76.136737731840952 55.221614545606300
-73.934198592875930 77.325864276956452 55.242316968762481
-68.977809992549936 78.663942692910666 54.692090860096926
-64.202035953961797 80.043505364918900 54.261517045443441
-59.414451144235031 81.159355853474480 52.716099442044701
-54.637484887467210 82.458847440639630 53.712424217208394
-49.741019185300729 83.803886326903083 54.365332449437489
-44.988576111305569 85.403096922943647 56.118052944718457
-40.287089376591680 86.964980194312403 62.667054335014512
-35.480406673799152 88.416035545590205 65.410459019921646
-30.538895063563125 89.777504363285033 66.546891368135960
-25.843518393744180 91.146448677808593 66.640708648047465
-21.057609453574575 92.452924996297156 66.231305978274108
-16.059993224969350 93.648378170795297 65.434986043053883
-11.250555683604457 94.949237541706196 64.395889481584959
-6.404303440525199 96.012780508517324 63.198279598201999
-1.574940069854794 97.192051700260492 59.339383589505914
3.278127074709630 98.486825623257516 58.108923203412424
8.105457862835770 99.442323803030916 55.022064383632632
12.988277158813780 100.605084029775256 52.207815286097762
18.010329503952050 101.452589894649137 46.306395595623854
22.988451558539964 102.106043499273682 37.022907543574959
-103.075581781726243 68.632717290645033 33.795763887848125
-98.232515221083958 70.521777595165702 41.006332748010308
-93.572983687731167 72.341576716323061 47.372978921248276
-88.791464531123637 73.910950615786390 51.227190106137236
-84.018485311674510 75.450812531480011 53.050165494917351
-79.089028060144713 76.847343876062979 55.097583969044642
-74.420781898026306 78.041855858940863 55.350844252260892
-69.578641228451318 79.311519421577174 54.473537055339023
-64.642700529102456 80.485923372499940 53.839994430139576
-59.852915028532266 81.729041660694378 52.825729301840084
-55.084681959491526 83.075533259349669 53.793709890173524
-50.137110924438872 84.485470986991785 54.565387327689507
-45.333831658331775 85.782550996578763 55.175781227940249
-40.708249869813869 87.592842372344663 62.070391724098357
-36.015435671648000 89.170605583145360 64.938965077661109
-31.138177073126435 90.438088850269935 66.352388907934397
-26.193062160651188 91.802869312208458 66.446615400291648
-21.496625272296576 93.047861650161224 66.126814119530394
-16.522659872266907 94.206016891939441 65.300629097696316
-11.642816617411999 95.498211203597776 63.964272287164960
-6.869252219888841 96.793478098302188 62.972609787569411
-1.990315378260899 97.836789886572532 59.172540380492379
2.850698635934556 99.138152186640909 58.057469490808394
7.671823473767517 100.102235652639138 55.074650100142421
12.677167998538980 101.162117055254754 52.384908521343533
17.592318059110838 102.138577510258031 46.701045252548774
22.503260127990682 102.700057103992833 37.633978139014950
-103.453550642336126 69.342844175187778 33.579919752603516
-98.644313155647311 71.143188973595784 40.851914230404134
-93.877899401826383 72.912372285966455 46.901522117187916
-89.174418276458724 74.523409419431260 51.117441993511150
-84.307764946881832 75.938035598105969 52.687827784143700
-79.561560668081370 77.416859353460836 55.074176034874796
-74.812606375950821 78.646267964160103 55.371433753042389
-69.967289596265502 79.871781625634327 54.269334823476136
-65.136701492716753 81.167500395691633 53.756031989276096
-60.194388008899679 82.463810429380430 52.698847974452931
-55.349125118199318 83.738916909524207 53.674614824970597
-50.610805083461031 85.115101748588785 54.464462244381423
-45.834668984071179 86.417417142458831 54.532233802818205
-41.087102756376304 88.139202529147695 61.281898519225841
-36.360265123605672 89.678118971786120 64.588487910927199
-31.536837454329032 91.106183273006337 65.950318545583514
-26.614287996909390 92.299506492974928 66.179880237416427
-21.910548055298865 93.548857890137910 65.945149777472949
-17.112553874164220 94.821468714985201 65.155070994270289
-12.228627459565672 96.128921061461398 63.477565719901584
-7.326276750683510 97.222184656390610 62.652011457064972
-2.415470636750136 98.331037330993496 59.325175543898830
2.358302325177945 99.598550282707080 57.961217713218886
7.236314574415253 100.741880160689874 55.533491404579522
12.276768042632263 101.911344399535409 52.034374310817668
17.189465664399187 102.708138607052149 46.841796766796428
22.029951628123477 103.386849375318590 37.923967075553847
-103.308316608634328 70.200358880664950 34.212650611610400
-98.553163578549658 71.934738729010064 40.967118740376634
-93.892001397116886 73.685587339928333 46.954280986697988
-89.154129804664336 75.329675341255310 51.298359874617418
-84.407244802880953 76.695091248428895 52.637174501351183
-79.521022760987975 78.224056047047753 54.807738319425987
-74.803052743360240 79.436304349842658 55.375012770211363
-69.815961998035789 80.693368818716948 53.978935863306859
-65.077973835265084 81.989409094494860 53.759854886039697
-60.117618462432091 83.101155369923887 52.642458010955536
-55.425111434020252 84.630079810948587 53.734221475301709
-50.533399249723558 85.884448738348411 54.450121961856681
-45.782668406723396 87.083035301111465 54.643305759491213
-41.106000422510689 88.887737150709228 60.644706975741563
-36.376360487563844 90.320456507852256 64.093233384224533
-31.422445487449949 91.736955370218809 65.694650384198098
-26.590253409965282 92.949184796443888 65.988751751972217
-21.774423370017001 94.373963311845770 65.754292132074454
-17.012035415854427 95.640725307798249 65.095067799312829
-12.040793235955551 96.717695511781244 63.134897903985703
-7.257082980560137 97.928494612432431 62.039057965132173
-2.321168503403666 99.019697389119955 58.575052299566778
2.488436466579703 100.323384362640084 57.777377752960881
7.458718356600659 101.474713473844815 55.136675576704739
12.177667368798698 102.459126621908766 51.641294429078066
17.143920546544873 103.466224275475000 46.518379623883973
22.097903251647651 104.040350387543228 37.324913899066367
-103.712303294697776 70.853427710808717 33.980190270620305
-98.966743597745676 72.664990464768408 41.002007748180098
-94.409581772972246 74.171568814830110 46.568480255151414
-89.447053161790564 75.860303088711930 51.045329130598489
-84.778638923717935 77.223046896655717 52.317895269324367
-79.966737613705448 78.823849613658439 54.591452796113636
-75.114063267078990 79.986938607745117 55.306547726244382
-70.199266863191440 81.199675329012308 53.986041871714363
-65.464528747887357 82.593339628302900 53.930662966057973
-60.570609293185115 83.789946589093844 52.616754943593619
-55.837214371832474 85.205525093817400 53.619847652709623
-51.054981030730353 86.539701891655923 54.596554208754434
-46.163002529061743 87.807433592789735 54.561684979740505
-41.580529874454470 89.372001563475649 59.278271780493256
-36.663319031179654 90.994214960464504 63.347410368188541
-31.806854079692272 92.255801415708333 65.007751612049518
-26.996838122202831 93.622828201172041 65.510905725771863
-22.160912472228262 94.884456519150277 65.336969166957772
-17.270000727146517 96.247872696706622 64.918593884727102
-12.612801750725851 97.370116356344298 62.918536253162152
-7.542594982726889 98.528836867015812 61.638246914027789
-2.813176101963929 99.798780798940300 58.584836753726677
2.145032575183969 100.935618948221588 57.803951735499595
6.864089822359556 101.970872848152197 55.065942212697756
11.864504931283907 103.137287512031563 51.540983863432743
16.675359731223729 104.088183431438111 46.431407812754863
21.743856184040450 104.675421774741508 37.616582125445731
-104.137799255097946 71.394501069348323 33.323526007926290
-99.503172161540832 73.206197473097660 40.774112090882994
-94.724648753150490 74.852008952204656 46.067258420457406
-90.004636145237498 76.381660926900196 50.848851295218637
-85.138300150507604 77.947128115599241 52.346228141779171
-80.363401218071090 79.328761852087567 54.377927797988299
-75.639724916521871 80.601117398568874 55.138925916316218
-70.757214200981011 81.908636108820218 54.100054188688546
-65.931434788208790 83.241121289937425 54.416192906324021
-61.066952586683982 84.414253693119093 52.504211250445934
-56.261394032710228 85.660075572231989 53.499007212585667
-51.413601286541052 87.041322080082153 54.592427466951413
-46.672448731456569 88.357585569819634 55.047997704273655
-41.852051149009711 89.984391930135359 58.558353910059040
-37.028969663509059 91.539699779427565 62.857524521317480
-32.283588632184163 92.888037381918636 64.173494625235634
-27.555403263052170 94.255519248375009 65.102898022055285
-22.620538093887703 95.558104669209811 65.258812901083928
-17.838669977656703 96.816363597308268 64.604055438644224
-12.912964451898969 98.064488960813449 62.709685896129962
-8.050396771715945 99.219914234731405 61.365636546660646
-3.180029161251358 100.279813133203177 58.436501027665877
1.600628807241751 101.571862993148940 57.602937092625943
6.508238311656640 102.531590430267073 54.939332141839472
11.481839443660391 103.781387990375251 51.605077332851678
16.325162451059470 104.749622969639361 46.515091445057486
21.286479749356420 105.303050612167198 37.749602139866212
-104.066925560805814 72.218196892196943 34.024814675930628
-99.499817091761400 74.002970718456240 41.099349880476559
-94.598544724506141 75.722730042018611 46.128897972939249
-89.954219961816904 77.241870238045905 50.775434767634927
-85.133342894253943 78.605787051422311 52.307499791215868
-80.290770164345005 80.078458149784893 54.334404035115220
-75.553435256626514 81.417601718908472 54.787989837333065
-70.586629461820010 82.616628213536700 53.866253825719006
-65.897627691360015 83.982281914867315 54.395333363383187
-61.031642038419065 85.044326637313318 52.356791582633200
-56.167803006229661 86.588820121373061 53.447493996861624
-51.324340491860923 87.879954395683924 54.450101958730762
-46.484826889218297 89.217178034097984 55.270834800062850
-41.762575990671934 90.630719804062309 57.841034359816824
-37.056085108075763 92.153355935848779 62.247975987743921
-32.196025930985556 93.522980778206914 63.311565429944324
-27.364210881975112 94.906182470891295 64.642545585375103
-22.508940391689883 96.277454468202905 64.604556914846199
-17.672147424255240 97.511148456528574 64.203892179965180
-12.752704200350944 98.611174980662739 62.271512850584678
-8.036336092007716 99.797606295664025 60.604012544554557
-3.138422876192831 101.073594224712451 58.047338954671282
1.697853219270105 102.271908982453667 57.211418463568414
6.729036285076287 103.432506471206310 54.602964160790798
11.679786179324271 104.503276141223779 51.023236575610952
16.403267961819811 105.314933350040974 45.677372717238953
21.367039551014685 106.005787065179817 37.051942674148407
-104.047668884382261 72.953678761933958 34.424069219157765
-99.263521844711846 74.779006730549341 41.510567181544417
-94.499235836833478 76.450496073496950 46.262961094272931
-89.839735576389359 77.994050889097934 50.741867024584053
-85.017353249864811 79.418313624655568 52.183118861258130
-80.174465569968163 80.702829775967160 54.022797001325443
-75.491061507351958 82.175712326172786 54.513209735042558
-70.616002101165094 83.352403650313818 53.693740426808183
-65.829026444112657 84.648203363710152 54.256860171867984
-60.914021391468708 85.911605734342530 52.369623925670830
-56.150338506356846 87.307799719853193 53.418637087753574
-51.392221774423199 88.482913511133845 54.591568811111195
-46.520775490717767 89.913849294564642 55.075053155052217
-41.630020141213251 91.309933077027921 55.527731186544173
-36.986351106242410 92.982249673819780 61.689839146688946
-32.066540841754019 94.246597664241122 62.882439683897601
-27.344099266476015 95.569390078964616 64.168032115557736
-22.523649210431131 96.993679876491754 64.259351401661718
-17.563108381620410 98.265996123702948 63.743554561837932
-12.760118275807272 99.431475116069294 61.786182901605699
-7.851978132530114 100.514674413682016 59.954012220351942
-3.010823230304631 101.725430345433352 57.848289816585940
1.840510992134693 103.059053408035780 57.157576108614840
6.574827561257784 103.915469113204423 53.994179334017723
11.507275474478675 105.194613117066552 50.632751035051150
16.417716905476400 106.092687960902452 44.979960136622232
21.447538223500995 106.746897716886139 36.485479217272015
-103.543960833211372 73.997383580716161 35.756308280689908
-98.878149653649103 75.670935940869825 42.449977582325204
-94.117779031899957 77.216940308526873 47.020556299990545
-89.352537378935054 78.843601908671971 51.089638794478745
-84.606226222700627 80.364214291928505 52.319466274561265
-79.750764601248221 81.647986181110610 53.798723806097335
-74.879750950023947 82.837443716105696 54.007850875785088
-70.164139536010580 84.209078388817431 53.871326561766587
-65.185480289219868 85.542857798908187 53.674950464534447
-60.367908861824901 86.811098368855440 52.137483020032349
-55.520560488943886 88.135014341629187 53.314893754502393
-50.759396184060705 89.442706622001580 54.717230739351862
-45.919292357284561 90.650425240223214 53.893209598375435
-41.088901710838115 92.160965867759913 55.299256268231012
-36.440083157879357 93.706261575566216 61.121022621173111
-31.498696308851223 95.207568993847445 62.233498784527477
-26.772082388162445 96.451888896869960 63.703798842602339
-21.871218742414239 97.796277747846062 63.694879532902462
-17.080590374278806 99.134118224670232 63.049262284131515
-12.231125220072279 100.168525228267711 60.863038467811229
-7.344180148757950 101.435242266626616 59.365271767970896
-2.587674841341631 102.584500514674161 57.575993090446779
2.309010051538227 103.916703421088769 56.473035185580329
7.289055758657209 104.885966339333791 53.151677116458615
12.135258096136720 105.914376978168434 49.611784483981815
16.950017056231012 106.795108453870782 43.294838352735958
22.017153988404459 107.585490839815989 34.463584368949775
-102.995441572507204 75.045124717094282 36.937887038446689
-98.339483872203957 76.579489473998876 43.198016610455070
-93.552576200111545 78.165684044398219 47.533025612825980
-88.779722641496022 79.848017468701414 51.418777154394185
-84.048251297917489 81.171083639966099 52.151130050002671
-79.243652972128004 82.515857582676745 53.443359241826542
-74.327327063649761 83.847550875343387 53.415789775181885
-69.508192227268069 85.151689488980139 54.011990244886199
-64.603286500510933 86.392731233709441 53.119223557763966
-59.922568254691257 87.583808036856823 52.050599662094712
-55.071936160235467 88.921701224797388 53.404803652990140
-50.295412281765543 90.307104492404363 54.699417684001418
-45.359793879106505 91.559711856717371 53.589145417923618
-40.605681033746315 92.921494098590216 55.166809064955281
-35.843015128652368 94.679556802517126 60.242143849685085
-31.056295758802534 95.949257709088712 61.725612727501776
-26.160679334951908 97.366303107514753 63.147265471670998
-21.361983107039467 98.667505674686367 63.241826052001258
-16.582044821100610 99.810563328770911 62.206913162061085
-11.690886659732453 101.064159511940716 59.742835409502895
-6.834756747091529 102.291942489966829 58.622746245805452
-2.052412120552379 103.516704426513854 57.225521173868835
2.857598480604036 104.666785865348800 55.910545639843548
7.791457618751117 105.848550977849641 52.517545291285295
12.645589823153294 106.751317663712200 48.524605322924145
17.681990595733268 107.658890830732560 42.110682659417726
22.598265645736667 108.100501467104365 30.275877478199522
-102.624000492550209 75.877026920999839 37.804886384498886
-97.840617024802924 77.590767155361604 43.900476516874910
-93.081425696058105 79.122316309461908 48.008752095492731
-88.192430867781468 80.617410011014798 51.270960157670153
-83.385498480251727 81.977236939918512 52.118294954294441
-78.617724845775186 83.466192178217611 53.179680412874589
-73.779657572548473 84.636733143016770 53.205213437394335
-68.988475223630161 85.976594859680816 53.941952176587868
-64.128719852910905 87.250459885696870 52.931869660847937
-59.302676928808808 88.412587415581982 51.950753239400385
-54.592786588596624 89.831761578919000 53.445278409259828
-49.661341418663511 91.271990592231901 54.659910144316775
-44.784835426569202 92.441419444945453 54.126351733052218
-40.011077822639052 93.949509164991028 54.792372421098101
-35.340616717092473 95.370698429805614 58.969043249493005
-30.406470616124480 96.838378244849267 61.496973594032191
-25.564775443848497 98.085507013247508 62.473175568426136
-20.724455035765800 99.467386266340128 62.468488493713068
-15.960021934415007 100.715004097175537 61.091123253541973
-11.232907105577148 101.855812972792776 59.261004572302113
-6.233306384018949 103.130666459824951 57.975097811260838
-1.456728144139973 104.356057667812621 56.908375756196087
3.405284313756518 105.452121646837938 55.185235859128227
8.278908662659777 106.483218432379971 51.838451910917215
13.285528372042659 107.544563516497988 47.389919972428011
18.108934280887759 108.509970614954966 40.442689113551921
-106.601474470309995 74.698624324665303 26.407253741263840
-102.044023686741511 76.784575145008901 38.920410973323868
-97.267758106694174 78.516072216412041 44.243775517564885
-92.533644886630270 80.052771077231057 48.607174079724288
-87.663287785553649 81.585687659573722 51.331056036234465
-82.969757710820005 82.944018311080868 52.195111660254014
-78.071937619959556 84.297073208712987 52.834998493621242
-73.292893970233678 85.508674858660783 53.147007764410155
-68.446344787097189 86.925932536247544 53.890429327847279
-63.613873194100364 88.095785268324562 52.751950610614990
-58.756043921813003 89.301790057235024 51.930454126076512
-54.033717745430593 90.787403757697405 53.376659745685515
-49.152997309070066 92.001105496149933 54.167549244446128
-44.314818585513933 93.407117199839533 54.722814310672725
-39.515398729732738 94.645843492967686 54.629857609166734
-34.741707285222631 96.220174436387850 58.140875740340547
-29.936080744403512 97.627394697363272 60.854047356372718
-25.128841010159057 98.985206654792620 61.731914515865576
-20.339972413617801 100.281967645897566 61.612575437030081
-15.335768449402281 101.592151310335467 59.921276474017070
-10.625045063894566 102.612173976473002 58.651983387964698
-5.786552834566166 103.905849245054782 57.692334361857966
-0.896629177379083 105.208457380653201 56.851791345229387
4.043668804937948 106.281095243481573 54.119736422405765
8.873382003982055 107.363715654046871 50.923321538055568
13.712668538017407 108.405916494492757 46.010043357315453
18.793739188436223 109.168466346062758 38.387741763669212
-105.751236800989417 76.097471002195135 32.175256799688270
-101.033647222707572 77.946578859855734 40.205522782586684
-96.339025079870879 79.591424257265800 45.166656328744651
-91.404094370799498 81.088877935262516 49.220076020690321
-86.723747237350594 82.459904057502200 51.480234434804707
-81.938200292792004 83.925488417295441 52.086601603272236
-77.203425068002261 85.288130911442408 52.853810151063882
-72.136292484752985 86.579285509169182 52.784911997782224
-67.241508617909190 87.887403140548628 53.434442190620750
-62.501069096454700 89.022000961517733 52.408967226882822
-57.637121512152490 90.352777791122264 52.099743201591117
-52.879259105629657 91.706299598045675 53.692730560443820
-48.019552445109667 93.079731325328240 53.467210206053394
-43.352839387015408 94.441764243550878 54.738571177931320
-38.458954211835135 95.620820355740960 54.393522255870813
-33.784598822380893 97.132313276230434 57.467520493836304
-28.965722315126861 98.677594078851570 60.253275703993381
-24.041146671825242 100.050568542149918 60.738809215188212
-19.192687979921310 101.265048452251591 60.238783746492622
-14.310927081259596 102.416816810745402 58.194337696507304
-9.509744748513649 103.773866451728381 58.346560400903236
-4.788631216370330 104.866121938702960 57.209327565208909
0.257055174662380 106.258991621903590 56.160406704239968
5.063194142581832 107.323087521790214 52.455122695091205
9.879239497201862 108.378276820718568 49.460093484480936
14.807469223209083 109.330355846456214 43.335020989135103
19.863929271396877 109.902077576403670 35.458776996250549
-105.238806643460052 76.988758551000060 33.343337924240515
-100.470952227522702 78.836428185702928 40.843323684649945
-95.665977815750864 80.560726901283914 45.590342132217593
-91.006978666496494 81.888293732144689 49.402912885713405
-86.148756099392841 83.471169362132301 51.560519347136619
-81.231028458536741 84.743703643997762 52.406055465048532
-76.534719499240623 86.144246611920337 52.955948162703457
-71.678941492525951 87.335391345852173 52.594501531839242
-66.877947662134005 88.597844427784580 52.927879635227477
-61.974096507742331 89.932628188554929 52.153949805121940
-57.212782210564804 91.272707136240371 52.054936536262431
-52.440409571250655 92.606721728455128 53.547676876259878
-47.642523079743867 93.982430472083124 53.385517990809284
-42.731732878373762 95.222617023306654 54.481409574823239
-37.963078135190813 96.454787337963026 53.845673589105260
-33.105356908954093 97.972396452467748 56.064818812858363
-28.346359738356369 99.436105066522316 59.328425046498332
-23.475593126467423 100.844235124930577 59.541980254858011
-18.492319103935586 101.979130137091460 58.646651083988800
-13.853329889215143 103.250988323224192 57.788286358857526
-9.062787961333084 104.580175134069961 58.212475293483031
-4.127586547844228 105.768650749429071 57.024929619251012
0.708615255320222 107.049693194039094 55.322619552819447
5.597326463964556 108.018514979262591 51.777339283198046
10.425787500592147 109.101494223086149 47.987502617380507
15.396045148005882 109.925410453967459 42.349680162339602
20.444596562899672 110.738001169975888 33.150715678125579
-104.694410912312009 78.020538093158734 34.661443452487987
-99.996864751340354 79.736921055610566 41.241139989220898
-95.138272393319326 81.440473962945660 46.201369606399830
-90.478300647244552 82.884969977195894 49.559134716890284
-85.554260479212189 84.237364391865754 51.432926828443087
-80.862417134232658 85.644108425917338 52.495778769790682
-75.938230038949925 86.950404169514954 53.153775297587039
-71.128295527334259 88.203893044462291 52.695221811440490
-66.495645394829225 89.494713419167866 52.380290723373015
-61.425158888586537 90.688747076284784 51.534031804386728
-56.514224208938202 92.113198661602922 52.097834590968610
-51.878101672653543 93.442623449599850 53.380975432101025
-46.984198194943630 94.748522175079344 53.785551972331895
-42.207705924669028 96.130401670757379 54.400947785915058
-37.465827707366344 97.397150593766611 53.847173304420956
-32.350386103104164 98.711075857322825 54.589242039749521
-27.769758112350488 100.272217708215180 58.280973594159754
-22.945268439093880 101.536733270510965 58.378821964527539
-18.155176398979616 102.760275048818528 56.526378803837581
-13.320761839518727 104.228084698199936 57.640006282204439
-8.483123088969750 105.441452165294180 57.950767185348518
-3.531078741415691 106.739265592349113 56.627012966050735
1.312092171023700 107.860447350546593 54.451567474060951
6.071749850798586 108.773381402986885 51.350251069905063
11.091851967367255 109.938303247024507 46.955739142565072
16.066018418363313 110.800506486242142 40.655211285490168
21.070101551588362 111.179689866569902 25.630025837707045
-103.656152808144867 79.276747836259389 36.606953244883996
-98.879687438650592 80.773445743225750 42.335766351403358
-94.135598933863719 82.453524918248675 46.683384919690354
-89.483805755287023 83.852800052893443 49.723071878478784
-84.626397990391297 85.287185945151734 51.698350195474234
-79.927701797131760 86.620471883453902 52.414848752001610
-75.027282596043818 88.031016954643036 52.942098413861764
-70.061756441341061 89.327701962077882 52.428675829299920
-65.314699599852517 90.492380995944657 52.135271318752423
-60.448442310921294 91.790143193348797 50.961070619777601
-55.576782689854113 93.173017671503601 51.681178580227936
-50.759348999743324 94.425245905148117 53.156841216814534
-46.070916842856306 95.799065623003116 53.767832656952294
-41.192970854812593 97.036628025104662 54.342602399571305
-36.294898084256815 98.460720381123267 53.951017279104562
-31.392342284773477 99.665605856820221 54.324906313919250
-26.645082063311904 101.047692020111725 54.730490626524350
-21.900623025200307 102.317268651269856 54.574284623765500
-17.046593456750031 103.655133222076643 55.670903351571582
-12.203004633515597 105.157551382874843 57.569557422803946
-7.356636648246173 106.425980303649339 57.433724800631687
-2.473643418859613 107.608686594001099 56.061238877717706
2.383026906178113 108.749108629377361 53.241578866696891
7.186210622575910 109.826895282627703 50.106414328738644
12.196808510986582 110.711525790354059 45.383112074787263
17.024167321822880 111.618953139007360 38.436340282556429
-106.844381303490266 78.561993502062563 29.465806351614269
-102.080361617653381 80.424766002457034 38.772400647404893
-97.431720932392892 82.082117854553616 43.769634133076792
-92.599786515298632 83.682121943055876 47.597475022286496
-87.851447690338858 85.046239292035807 50.229734010385968
-83.148281605112842 86.488855232432201 51.972245324467636
-78.238700475233358 87.745258737705541 52.538821075199607
-73.431840001449515 89.072791677693374 52.132841159442876
-68.677304793135207 90.247189637344292 52.157129460191364
-63.734370658166867 91.666977564378428 51.977888341429498
-58.963993429236744 92.912659456722224 51.003755289547989
-54.140706494019064 94.197550055317734 51.817109166479831
-49.297830588909598 95.596139192206280 52.743051903283813
-44.445834680618859 96.959395862701896 54.035932100175557
-39.656332608743540 98.220545275068559 53.436563205196144
-34.809014644961543 99.452273690890294 53.455457617704475
-30.021408447649527 100.858216743709519 53.973565624470247
-25.129483020644123 102.127244625338747 53.973663276875897
-20.405271119184693 103.385779660631911 54.404328404603469
-15.524632941183761 104.838206876417260 55.857484418190673
-10.661374810642148 106.267054613969790 57.415104054188411
-6.004218732913456 107.506006841511891 56.727469689814406
-1.051731606467037 108.644135252325242 54.781301270144013
3.709697780841378 109.820247381121959 51.603152766773576
8.762825827415146 110.760411013858175 47.909298712479647
13.625162595377784 111.891657819189419 42.882368526619558
18.632896796121479 112.524554042121750 33.872492927845393
-104.588575459281842 80.291350592439017 35.256607921860507
-99.764453659371995 82.032878470632198 41.344540670786444
-95.024559291436020 83.640728112335722 46.090173014496528
-90.210527376711454 85.080238622704201 48.817110727162380
-85.336043871463843 86.438314040891100 51.082318204790788
-80.630606980469992 87.803171385715387 51.999642274395214
-75.917775408090336 89.241909869055064 52.262124675013297
-70.950488402557397 90.472861527288160 51.646514951849092
-66.127094386170725 91.832887322866284 51.695728060275464
-61.180940102408570 92.931783831027772 50.699706118447580
-56.498488033131380 94.216461508335058 51.019430491261495
-51.635852897964838 95.613844999409352 52.186564841693325
-46.811189461463243 96.965500243440331 53.127677037222433
-41.935845513888509 98.427503018366650 53.818749192138192
-37.078183037216405 99.580510437496599 53.898131708003056
-32.408689242743449 101.044706864972540 53.919877539183034
-27.493943610673398 102.188260199149227 53.776659133324557
-22.673227503402405 103.554089874602042 54.109537040730174
-17.835447536044331 104.976396528446685 54.181748968407035
-13.088782089836329 106.326947978441012 56.340954316851310
-8.222375544199215 107.565381494726651 56.795885344262096
-3.373684554134762 108.801041693253140 55.362955210211283
1.409157536708193 109.893967311015075 52.743321271476326
6.313588758818749 111.066388751088439 49.440712156704024
11.287967220061457 112.012535310296371 44.872835111456098
16.193899896688038 112.900861937162233 38.597008190906891
-106.748972866917995 80.107393905615993 29.231297957745049
-102.120070285121230 81.990027377358928 38.562220094134766
-97.320724433868534 83.613667014780688 43.664838772402490
-92.548786799076311 85.099553783529302 47.544700057736094
-87.868809982284105 86.577417181292645 49.767308577631972
-82.926537187859807 87.971549322519266 51.417834261128334
-78.204232928080529 89.335976211202635 52.045817087910777
-73.243113383389669 90.544629173895970 51.387010259806146
-68.481568085477306 91.809276532181514 51.041183873309279
-63.712739416795984 93.067014565555638 51.579923925080088
-58.806600868431531 94.326138519648168 50.336148290441720
-54.069280548808742 95.764326098557191 51.323299806799859
-49.138752681333230 97.076255264921599 52.347657785200447
-44.361101764269996 98.451177993491370 53.477178168409118
-39.590133371572840 99.816158988165384 53.371479356477003
-34.662058450758558 101.123169166760505 53.602582362719225
-29.966952512973378 102.299260361431223 53.771858562126297
-25.055384288876667 103.663780705328946 54.006184743151834
-20.250677078652657 105.008819886910644 54.064933212178232
-15.422620811022860 106.298656789162990 55.016576271840556
-10.620012187144459 107.675172453595010 56.505729609901898
-5.731402098704157 108.993365405759747 55.707421431292033
-0.950161525991671 110.071457612868613 53.467102624138583
4.010369716422652 111.049500757511112 50.157744808029335
8.987569906421871 112.282422701244911 46.418744130093160
13.786030088471250 113.173831325379197 41.131930561827858
18.835184374186323 113.684374026395616 28.121297296728564
-103.855190456241147 82.135055044906323 36.013841279627925
-99.143062317995032 83.726186458416123 41.807688583122484
-94.376159664527535 85.236493306717819 46.398166345111918
-89.591010601649430 86.603034971893550 48.623415920983149
-84.710457075581971 88.130890276581439 50.623611818540283
-80.094315557803085 89.458878670855682 51.613341775282308
-75.196400413603655 90.716032212056660 51.647817434342684
-70.378544236999943 92.102116085402400 50.701861647202115
-65.584628131658690 93.413279273015519 51.623819795045378
-60.609659968189078 94.634230405702709 50.020704759314775
-55.898758808740553 95.766892269923872 50.242700299141156
-51.064850608677915 97.226283521314684 51.518273903153023
-46.239821809662914 98.638152293835077 52.658648372452369
-41.420943202292619 99.853553523513071 53.158150766861290
-36.558333681449810 101.164865902503635 52.971741334234693
-31.773954392286988 102.559451953317875 53.597700584885210
-26.918650046163751 103.829342622894117 54.010688896720552
-22.001851143742567 105.161510133724150 54.147362282490825
-17.226871168936853 106.405285310070369 53.407214171133781
-12.454020123994603 107.742806458401745 55.406879691069442
-7.549947043837280 109.109785102500027 55.557797106506683
-2.774336651369662 110.286199428394141 53.921780464828096
2.135584586371721 111.411806906092295 50.726777799133032
6.940266697062476 112.374474389126902 47.170294443351551
11.871783360309689 113.542930880964477 42.958219969708118
16.701897637153895 114.368614317731655 35.796410047842656
-105.263536411330762 82.192436292292967 33.149839803065191
-100.480813280128913 83.949877512195940 40.148053627481389
-95.729810879923519 85.570405327768498 44.985005957356869
-90.912227672744876 86.983544401059973 47.884010280734017
-86.219103680758323 88.485509985195819 49.903264796023571
-81.361067099808153 89.825046973332434 51.077235204615882
-76.552682866458696 91.117264121607818 51.382732119858076
-71.737655946135135 92.384747303771491 50.436263524905577
-66.877406359135534 93.611493092486100 51.324731770855855
-61.992257867869043 94.890491200844309 50.303348119617581
-57.177821475683601 96.167912379012265 49.748149998436894
-52.340963040326784 97.549621242839137 51.146543694903549
-47.611281515436204 98.893917016690679 51.867416938225475
-42.850339887487308 100.279198959703464 52.984354314508650
-37.910475520383613 101.511055438708482 52.578498820576627
-33.176755048304734 102.898156825882452 53.591472686908610
-28.358240224532111 104.184180689812678 53.995974027873302
-23.560909267781959 105.544459757936764 54.239872669375011
-18.619706779866672 106.802033446420793 52.781239747336564
-13.844266336553613 108.156260757817932 54.233794811195366
-8.978179060690501 109.363944374818573 55.008972437314739
-4.116634936905225 110.675385404602892 54.024831948249535
0.792262632033975 111.792729592830980 51.455940367932619
5.658658925465250 112.936147297483274 47.651185119831332
10.436711229046924 113.868500460879361 43.826973314376396
15.448056472723518 114.815034887374523 37.640800705248175
-106.016419856324120 82.593354771277063 30.052525939948875
-101.297004863409001 84.397756674281553 39.049391474083293
-96.684609415028703 86.069610725864578 44.249503387232849
-91.851604990055947 87.573468382729246 47.513699692650185
-87.034494648529162 88.919573798405793 49.351502697375778
-82.267737349485344 90.294418846933794 50.586270599452057
-77.483918558695578 91.580218688118009 51.239991146298316
-72.704003011524762 92.793807392453459 50.534405927470466
-67.754566501157569 94.325082106346144 50.721259527105545
-62.891928131545711 95.400509872945008 50.541955284478135
-58.138163478014818 96.615625924185395 49.154474908247686
-53.227471997083541 98.068915264655161 50.478743661855447
-48.630353579775004 99.392754151676229 51.375538428714954
-43.621240361572831 100.818827400989164 52.672346421435094
-38.788303855952350 102.039061398876512 52.660199712505566
-34.089108225301473 103.367015446830536 53.428560620988065
-29.282406585366900 104.708183521955874 53.988948224850176
-24.379296174394735 106.034076727482031 54.363028553724732
-19.587478515754942 107.284593621691201 52.779128119604088
-14.692975590614445 108.564422312922161 53.093435992600597
-9.850561182413010 109.902714995680697 54.437684960079643
-5.064068984467426 111.142104626225233 53.602644454091497
-0.257497744463528 112.352118315939691 51.420454463717149
4.675305944391873 113.402123000658449 48.060466011961211
9.566297620574257 114.486170743670570 44.184771073646068
14.501410807926892 115.366091081578759 38.417374984243423
-106.079344325086282 83.435717233753522 30.248490083651902
-101.312985074975529 85.161428310078236 39.165334241979309
-96.639205643188205 86.759623618458406 44.242691205072894
-91.875778630635324 88.232489121402395 47.616882160046771
-87.084238395283904 89.713367561552715 49.013779220021128
-82.218108216703854 90.914365824257530 50.187589428583607
-77.456191218834007 92.341561331500657 50.887176828400499
-72.494834108899383 93.577270026427485 50.128637752166043
-67.741956512696063 94.899932889281544 50.576011450493951
-62.933644787818395 96.114535801147369 50.192678972356084
-58.188286736027123 97.359578285521252 48.842147944976929
-53.154882343368897 98.705186284088740 50.227013601113050
-48.364777002613756 100.108185031003813 50.924523212785161
-43.612192085322391 101.519569616868779 52.423320702800929
-38.748322384291789 102.677521179675935 52.373663251073545
-33.943903024996551 103.981033117975457 53.213601485456699
-29.065723550816756 105.399839455473469 54.187597040915968
-24.230265207298096 106.734791344136283 54.102957525569650
-19.459320300368098 107.997728479492295 52.685715526867874
-14.681791112539774 109.175889833066250 52.327072195638642
-9.862372619571389 110.541562550016607 53.604406453931077
-5.051549070635545 111.998817606086277 52.761876461830553
-0.122450932156788 113.093731665171987 49.616703535318941
4.774146026610730 114.083149849093630 47.690346661470933
9.701837077182596 115.186303613517353 43.460170457224649
14.564833243438077 116.090942842743061 37.469460125153212
-105.533961948636858 84.341867527622554 30.986924487466290
-100.892009564979659 86.153130258863015 39.570583292100423
-96.137972352876460 87.752224611790751 45.064615639891500
-91.294778035108791 88.989575327358708 47.413309044269702
-86.459730257722015 90.499489518441322 48.923772993162274
-81.637994225052552 91.862572276394715 49.963582357740449
-76.928383183005849 93.190756620898597 50.369616881276301
-71.997350327280472 94.415917219491334 49.665092821393678
-67.126596912794938 95.827621170016940 50.444975916332226
-62.385521454956404 97.050718058778287 49.502896103874576
-57.555478744339183 98.234583412060644 48.543244520176529
-52.664333146530936 99.615858959791055 49.888410355580483
-47.839307723289394 100.990261200961214 50.884627485871249
-43.056380891215333 102.317740062504981 52.049643934231035
-38.140535634265902 103.648121078585334 52.237916863614103
-33.495683835080648 105.022439269239598 53.358862702888025
-28.705779854554336 106.347375184626742 54.152399719945798
-23.836111851224452 107.556005589255463 53.817799723268060
-18.978802107997002 108.830003166366836 52.455836750304080
-14.173959629244663 110.157110342207602 51.857662100751085
-9.322408603562348 111.549076870711033 52.809522412285773
-4.430876771926872 112.685790627245595 52.143086238168792
0.460281022340638 113.775766668094462 49.273942734993312
5.248304142047488 114.933168080037632 46.957228736670928
10.182027234715601 116.022629472148282 42.066539773060619
15.120129702025249 116.865711366480980 35.631203687981802
-103.665464334867409 85.735888559401857 35.651365868378221
-98.842746298218529 87.609167976859283 42.116979447588008
-94.169457068624070 89.042121398372132 46.934425197305259
-89.342761335958841 90.468971653094457 47.768610827512639
-84.512163461222656 91.733288290171572 49.258311897268378
-79.753088165664778 93.180751840627565 49.865137005325060
-74.814459129831320 94.428604105072779 49.894275697012652
-69.999831896171301 95.712310278240622 49.419547381806062
-65.263637672207608 96.944446121291037 50.112668877683092
-60.421532222866404 98.211205734025441 48.164344810053954
-55.507628780371306 99.498364107561343 48.851472300501158
-50.708233230488872 100.921573268110336 49.808229427512074
-46.025974699122798 102.141273913670005 51.342708892605927
-41.074577934539633 103.565154027842993 52.234435052841498
-36.289180943721519 104.821314311427557 53.080746257112047
-31.458231861607963 106.386682051458891 53.605761704038557
-26.493338165969096 107.512165523298947 54.020497377334351
-21.718779296004005 108.723301875586557 53.011615854966266
-16.973535395648330 110.111640778716094 51.352799596580063
-12.053514797126759 111.332401258344532 51.801991171584454
-7.301558428139694 112.659654373585568 51.997060760347594
-2.396764994451924 113.827267627474512 50.047707695491191
2.462663126764177 115.007654029917191 48.482378873390452
7.276411064771739 116.046251209274345 44.951243443976260
12.214783263248101 117.064868997494813 38.840268916210675
-105.822569703593757 85.503636426284331 28.510671100446764
-101.220377849565949 87.375790039311113 39.225229523465337
-96.476302017463510 89.139541408444018 45.763001318815100
-91.750699839948950 90.532660470254783 47.179963223518698
-86.920537292356386 91.885072064579987 48.174759530674805
-82.040332583738319 93.165855055575349 49.067059229924581
-77.206490203149201 94.587960905222616 49.424615332161778
-72.327840005346303 95.739879227925925 48.804443945806341
-67.567430800022663 97.093704829100901 49.476073043207883
-62.753723301045142 98.362376723983019 48.641657203640449
-57.969429445810945 99.642139906910842 47.893695464209436
-53.121182323679797 100.967994511716228 49.103618907729278
-48.319259311550951 102.368019117218722 50.114279669011644
-43.406195964716105 103.657251546310363 51.507676654681141
-38.638596733111186 104.995780298465974 51.969875695723239
-33.927657614083039 106.290543247979315 53.046604594824686
-29.079021885787441 107.732182614668972 53.908117481403814
-24.062775333655807 108.999209744895964 53.403972438823551
-19.239938059639673 110.175440955125239 52.204161812343109
-14.441056161722749 111.419646773991488 50.929030723470589
-9.652543473246181 112.694807233666438 51.477025295591041
-4.881781325072286 113.998383957753603 50.509148826961699
0.054057104105130 115.227163357306040 49.081756700987235
4.816723402057558 116.325787529277164 46.691461634330771
9.708127228581056 117.278277552856821 41.331135176649866
14.770399910263819 118.054476628361101 32.116719046093380
-103.052472891856127 87.607242318035460 36.315620279570922
-98.278267304401666 89.308620177466679 43.778266839134211
-93.609611768077244 90.741461223747308 47.497379017046001
-88.703621756124676 92.032959951159910 47.565001191113147
-83.915386762724779 93.383461807016360 48.630327701041935
-79.042580513041628 94.660385242777309 48.880106211691285
-74.275921453725630 96.026295875313565 48.986290859755115
-69.435552205484910 97.304510232055790 48.954308044576422
-64.635453080441735 98.575983626805268 49.115904599295561
-59.771399607689830 99.745214264606346 47.376630351063838
-54.917842306655302 101.126353849836065 48.231880472908166
-50.103439196542368 102.518578581703096 49.180069234153265
-45.176765244494931 103.990659528072953 50.819403697398066
-40.385925752153739 105.233030352195357 51.557496878572586
-35.681753171483322 106.512855059355161 52.766520697587211
-30.808437965189945 107.943549463810882 53.555557060575609
-26.060961825573507 109.176829205541608 53.523292974034860
-21.210449305056446 110.516125231980226 52.527627768137016
-16.179199936294214 111.572488460882681 51.184201070219125
-11.445146453528984 112.957065638009411 50.604665473887742
-6.751992952675515 114.231041309131925 50.274253465105311
-1.798577154861057 115.404317786001485 49.242683618440992
3.036701194779329 116.676878741466723 47.427257337577480
7.927228840929391 117.630966303784092 42.856356664104482
12.894349500852449 118.614278863115928 36.723233329875455
-104.495980634274346 87.807236878306071 34.426642358621351
-99.661863206388347 89.417857170672335 41.424930733290367
-94.889691728995444 91.134866162540533 47.881112241956089
