ply
format ascii 1.0
element vertex 819
property double x
property double y
property double z
end_header
-81.977069373697532 83.936238424364291 52.134155292148812
-77.068972025397102 85.263630704062550 52.862809371131561
-72.237362527442002 86.582617126531545 52.690581927585136
-67.440500868277340 87.833797822624192 53.526970943664296
-62.652807536704998 89.094346245507509 52.360613381468696
-57.692298185613453 90.397224236740897 51.917775545187069
-52.871211524884494 91.695823640407838 53.558269901068577
-48.140609512317084 93.033380598065250 53.457434352394117
-43.175587266054620 94.456021289327566 54.752140444352797
-38.445625559426063 95.733990432570067 54.384005418256272
-33.750680982017258 97.111565372005757 57.508597673145886
-28.899891600147562 98.578942710332981 60.290360944124416
-24.110331767643828 99.912677053422527 60.670035159549442
-19.164200328909214 101.248282809887101 60.224061639167502
-14.387981456521885 102.361060756464340 58.164946855743381
-9.530828887165759 103.747136001338447 58.368648038840043
-4.643024932353956 104.998172863607536 57.207289158305244
0.144992687644763 106.194672339757048 56.263152712509431
5.230141786784500 107.249926836300872 52.465754759150663
9.975281770678169 108.248855761811114 49.411461898418366
14.833535303409523 109.131363001082690 43.445073918920933
19.847132146487994 110.008854013658762 35.621058932741583
-105.249325920347161 77.034020705027132 33.424009712210335
-100.426319253356894 78.998271121878815 40.841718341110692
-95.727656267438448 80.418881488262485 45.663074229211333
-90.998816897104859 81.983121955022426 49.364121975331962
-86.182163595548673 83.439348999406633 51.466651036837945
-81.266839021692391 84.763636187399300 52.282111180335697
-76.514596467174556 86.136847594442827 53.043376890846986
-71.729827971879018 87.389191405043263 52.578619875737914
-66.827866352943403 88.725189456367858 52.823697724237711
-62.027761385917287 89.911953760304669 52.071127208367365
-57.336529655102922 91.148862517525288 52.008287584785279
-52.471578877544580 92.679144544586208 53.545547780231153
-47.533731337030900 93.891550650738040 53.391034191135475
-42.773914574210679 95.227364184207744 54.498633679422390
-37.878861671944236 96.533234268988679 53.827126605558504
-33.072912896231799 97.937071031976330 56.057747291042411
-28.338340436392308 99.505085326464254 59.398229921257737
-23.499113252828941 100.746125930328802 59.579355730565197
-18.671862453555498 102.054279208930083 58.724472624404989
-13.760591675529003 103.277105545275049 57.775797716050228
-9.168728673094611 104.482009446224765 58.207375012855643
-4.141880546602373 105.896517710498273 57.021486446547698
0.631268876513946 106.957704017471485 55.411200941678743
5.594625777891636 108.103394070711332 51.726183320478626
10.483350389460522 109.084469303402813 48.017152663159983
15.384174201185640 110.050576067433582 42.359658270326598
20.444452616494271 110.774727519998763 33.071691971717314
-104.642954972300515 78.009270972077729 34.643402833955037
-99.920521397778117 79.827476343303616 41.299321301393277
-95.131784927449544 81.476819526646068 46.113660938303596
-90.455678365901761 82.931901121323435 49.645990528569847
-85.604795664637038 84.353320159382747 51.486813359053450
-80.851045538431293 85.705885899960691 52.414919498325006
-76.002822528543788 87.024525593751548 53.106675472950407
-71.203709616896845 88.224993552464923 52.597378815730949
-66.265719500994550 89.586777438135584 52.352034598263941
-61.415318532179484 90.742130625366656 51.605678539919083
-56.640611737615004 92.081220894409341 52.140118540888921
-51.915666894192086 93.341039781842184 53.357888949458655
-47.054870474999277 94.866775434041230 53.823049946265890
-42.233130343122767 96.192931101279243 54.392534096597011
-37.384134349671726 97.293640063397120 53.828359213149049
-32.474773384269078 98.772971591838015 54.560955742094734
-27.772886435361606 100.291062302135202 58.333155818722346
-22.982307492301164 101.614244863625132 58.345877598282911
-18.066668227694088 102.663671511333320 56.417832257121013
-13.170036513454697 104.071398114733270 57.528939349497961
-8.469560280242980 105.378192139150173 57.910180994197241
-3.610500745232436 106.731508368174573 56.706280085588766
1.325841737645238 107.790394524459174 54.493584731137901
6.147604753325925 108.923541394300955 51.346622845990488
11.047439743143201 109.951642994300272 47.129927737832070
15.998388606122592 110.794434963448509 40.863899753110843
21.066261737354150 111.158495345241704 25.728497003243760
-103.740029865171138 79.253798989533209 36.604560513928689
-98.910934656081366 80.855735321935327 42.313025816510297
-94.217877932280203 82.524866410980152 46.692013694304372
-89.333016238245264 84.028328735517476 49.857671241923960
-84.543570436305743 85.398392787890501 51.737687791326103
-79.742069273011651 86.702330884369147 52.456067485056529
-74.825674635025067 87.986254336143674 52.876411679293689
-70.090780384386164 89.246879829793443 52.443246283270881
-65.373665697192507 90.465519009387748 52.084353393177885
-60.416818375744384 91.809810996465174 51.079872459821146
-55.479170131027843 93.142056191375460 51.716368680746214
-50.769135698838333 94.578934686705594 53.167580698564450
-45.928110398888528 95.930133989797667 53.929261728222336
-41.143397763665149 97.122327456956228 54.275507457842686
-36.344157413095260 98.416949798664902 53.956042389276924
-31.538711769877345 99.695636451200826 54.421741128595301
-26.846241894386750 101.039627563379227 54.777590254895152
-21.878014704768489 102.415536603050839 54.529084911972205
-17.120266785125679 103.632892481704246 55.716173894095007
-12.295000848294499 105.068711661512495 57.595846853656781
-7.473588417924050 106.261445585040690 57.450949343727999
-2.598844885468321 107.668197994154724 56.038064541170094
2.327384530896996 108.767072883905868 53.244718692378463
7.236582136400912 109.759541958696346 50.184208785516184
12.117540706981590 110.734446139383920 45.323204486202030
17.010847165304149 111.748969248667237 38.341960912456045
-106.907976442018082 78.497640237230016 29.447943500987137
-102.305062483752081 80.527728475908191 38.709666197034487
-97.427141318654819 82.015461861988328 43.669533117518789
-92.633869257556725 83.631713179826193 47.609281411720261
-87.788254343005988 85.043213581713914 50.193595203603927
-83.064409121607270 86.530648446179740 52.014267790456763
-78.194333449177805 87.695922105345844 52.691217791789917
-73.425797877336976 89.062149605809196 52.091248928204266
-68.656984592493103 90.363545093870925 52.066684924094901
-63.785585470173373 91.622692452249964 52.077453963067931
-59.045540992520131 92.849028197048412 50.937140502734927
-54.080382354949911 94.249180915735948 51.916501880265493
-49.330810748671126 95.661718956889416 52.674324709273606
-44.439670054288555 96.939844180444567 53.971273044742233
-39.669411005834682 98.276207760906686 53.514130365344982
-34.907632384981213 99.534230181359263 53.414076445188812
-30.002724177377040 100.897167837826544 54.090539853471931
-25.225930545202019 102.231953243363606 53.978886480255568
-20.407532178293025 103.409431520035540 54.390805605079308
-15.558167355488806 104.834288920394897 55.904163888031007
-10.752242857620155 106.158764181246980 57.430041084611560
-5.917123564995558 107.551867334275272 56.598354149302665
-1.064393327104781 108.704213912733877 54.877759776083884
3.809763735252936 109.676047499054377 51.519910519092463
8.694355218115366 110.847509613782222 47.945362065584355
13.605992186191312 111.698419148097855 42.835719510940280
18.684059364454786 112.600162635918565 33.846277301862600
-104.424092704116916 80.398193979315167 35.218245333062185
-99.759972024632688 82.073346537156013 41.323259383507306
-95.018098234277545 83.612196526110338 46.057955927466445
-90.123901719699802 85.145026472040371 48.978887066236844
-85.355371440402081 86.544164454568161 51.091505208017701
-80.618299796196226 87.771591794741994 52.016367488200579
-75.801990674262925 89.180281532876847 52.428287161831854
-70.960097636008896 90.491716689136382 51.532384217324534
-66.217278564149396 91.719909429493001 51.776168604287882
-61.216685559095225 92.932454493527160 50.877502536547098
-56.491888711827869 94.291174772274786 50.840765720620581
-51.705425721623129 95.649979714114963 52.181799639289835
-46.795182621017034 97.008201563874621 53.105019462208091
-41.899713994151341 98.422883051774079 53.864321192122986
-37.180078468733008 99.769998623161925 53.815594752025149
-32.391995772472058 100.966352510545832 53.886942367410839
-27.530799908199953 102.146606556988331 53.750316583590426
-22.665570905223554 103.624225161762553 54.173592715545055
-17.915242752761522 104.805941982278526 54.364866921498731
-13.080151689333256 106.261402433052240 56.366176236132972
-8.267074606724446 107.559939185365394 56.779403478807872
-3.403287762441032 108.888913003344442 55.414514124379075
1.527502598733093 109.850362667405733 52.758278470045880
6.269181674248795 111.005887646614966 49.349746427027576
11.232291596015841 111.934235080562118 44.960174067982685
16.229011992090928 112.926291473120571 38.618124857688414
-106.687799518135108 80.162550972571168 29.263304674867225
-102.106757499462034 82.018270916716304 38.647271025118123
-97.346272817442454 83.478479328561406 43.812071657083798
-92.495251665461893 85.121639447256626 47.560600315080094
-87.766981574960226 86.572964012326025 49.732501762057701
-82.899966184552383 87.869657199655364 51.428127116604742
-78.254321297791790 89.313606226104866 52.136204234605493
-73.322308261319520 90.471179526622919 51.291061848778611
-68.425296635778352 91.891064806745959 50.895581410861006
-63.628486803485714 93.098053443116854 51.582854174593550
-58.699508020103849 94.360052372294078 50.292250578386273
-53.949221890741711 95.846421659303019 51.320525538240354
-49.180890876696864 97.069963970619199 52.333878301262310
-44.349370751789905 98.471123308719740 53.587722108963881
-39.600324795491282 99.670158269355184 53.539952755947986
-34.751676586973353 101.070999658948196 53.650768936348349
-29.830282521092457 102.392070076971464 53.793243168738769
-24.991517401061547 103.699834977992424 54.064883259368898
-20.196411440690863 105.024152851797211 53.935317910896451
-15.408724444033364 106.360235176542787 55.024816818363476
-10.582918400409026 107.643419395057293 56.558172843156363
-5.725173196073268 108.906096002165938 55.832911049008345
-0.839110512991404 110.069675378933809 53.541352827413363
3.913043421893942 111.152681379689184 50.186530248065182
8.835769239131512 112.182029039414573 46.497811931723547
13.812896395896217 113.216915326241164 41.135064043814211
18.882587106168614 113.686481197553491 28.102789906266430
-103.900534716424730 81.978557531688324 35.877356129718606
-99.137948521442695 83.803418672173862 41.587749177524941
-94.525468673005548 85.311763196358427 46.477128150864758
-89.671026069321655 86.728471919074025 48.607352892906654
-84.834484069959629 88.158214460018286 50.740795339022505
-80.084205050236221 89.578949903897851 51.605634631597887
-75.302033573441008 90.819241467220380 51.581617791920401
-70.442663062395440 92.154798548234936 50.734056400499469
-65.519178790145318 93.408937744922085 51.524131419681915
-60.642584543358112 94.553366686549595 49.974848492354312
-55.779049381008178 95.849492519581517 50.261188824856859
-50.929591094478440 97.283081957973152 51.643890455842985
-46.194758923362429 98.640620337955937 52.783846632540993
-41.429262480186665 100.022347825910146 53.123897730553693
-36.586992131679338 101.092148401638980 53.037224437658551
-31.767755731647213 102.612101772755992 53.629371929751620
-26.891413761285015 103.776057161886854 53.936532351970605
-22.053668249513805 105.141143441983388 54.044692672132754
-17.248862902548307 106.353340476609134 53.542185782555450
-12.445682892743562 107.771061990800504 55.337398604826099
-7.715045052378183 109.204838539173068 55.557440023718215
-2.844284407161453 110.414989749365517 54.033026376137578
2.134454552778152 111.499221598467443 50.810241797541259
7.024098562698722 112.433290576066995 47.186523675017433
11.817197569758310 113.490460805382071 42.903553121142323
16.840879140955039 114.392481477382731 35.831736487028067
-105.265129952392215 82.262791395652926 33.137047436916092
-100.640590761104988 83.981116548430606 40.147705590875503
-95.775129036438258 85.538599989828384 45.122447792922479
-91.079971631688593 86.975655445783502 47.928889769126314
-86.239215034513535 88.486852372520914 49.901286704060894
-81.391619569474642 89.783155991618713 50.994758858141012
-76.525580530124529 91.046849587734641 51.430801874883535
-71.817184766591183 92.519770459937433 50.417248704461976
-66.891355971531397 93.690725481722922 51.154771862216073
-62.137403879060784 94.968083082851123 50.293322371529179
-57.232229107903208 96.146462771771553 49.746853193806999
-52.461367775724085 97.655411975221568 51.201450113721648
-47.627801530526163 98.890963845185325 51.952476775804804
-42.787943929930584 100.299833023947116 52.981188752349105
-37.976587514771282 101.492116656718338 52.552382077061907
-33.177566293515426 102.879455051392753 53.392358260717195
-28.302030663750784 104.156511671671240 53.947535942480847
-23.512112499363990 105.568202384032020 54.297063731950324
-18.621690008575854 106.711247624223645 52.822079189544333
-13.907097946208985 108.128071501036757 54.295956954789297
-8.941532092796148 109.552419878651733 54.972283227400389
-4.187832300498211 110.620994482977210 54.058245675621272
0.731393497375830 111.732725155387968 51.501237537592750
5.660939982148459 112.902506989092871 47.686329137186064
10.455764808770969 114.010627759336614 44.081778037476475
15.449420714528841 114.854521953269085 37.573491721939590
-106.152909300400879 82.500245606384141 30.200484415425400
-101.411377019704076 84.448219244544177 39.099754740460554
-96.716943303036075 86.057313884582868 44.185457298923176
-91.899389157142735 87.561915563767840 47.467304776989934
-87.149995205045400 88.951717352094605 49.229000192763159
-82.352019442058321 90.272610264769526 50.541657620836411
-77.496192913560506 91.491307939177517 51.310937144637712
-72.705119309750728 92.746723041035210 50.424075541788852
-67.767866663307331 94.230999756728394 50.755027325543828
-62.927086876652183 95.476833544085196 50.532086967819176
-58.206866941074033 96.624615208127551 49.052563795214809
-53.324933212699946 98.127669912610571 50.444012607760143
-48.424597438887389 99.413303986487506 51.330529295805171
-43.710236138961953 100.771745370530383 52.732549109857793
-38.920219612575899 102.018501736646769 52.617602931212446
-34.051914799533954 103.459280459894416 53.302434425863204
-29.249044249209170 104.708785649500996 54.010609730419191
-24.506757725347587 106.070768040620948 54.216400071140590
-19.523145373438506 107.258055725067507 52.879703821417635
-14.675234698137700 108.620321904886794 53.154828140418211
-9.906933774838910 109.859378348019902 54.577968530927087
-5.045999949365289 111.255670341770042 53.545743187560525
-0.197483620132896 112.331574705672352 51.454322781663677
4.742522566025169 113.495432534839679 48.077605798777000
9.565545563438103 114.354715688353309 44.126657482407637
14.450508315749339 115.428623805578312 38.310898895407874
-106.040386459140620 83.258766183928955 30.303492276379639
-101.430402975348954 85.262792456353651 39.186984937565782
-96.712586919207155 86.732424537303316 44.368651027961903
-91.870289257403101 88.242482228997886 47.534348606608575
-86.982166153522527 89.630515595895787 49.141720640390353
-82.225371642070456 90.996615212406695 50.251544884384195
-77.373652581958680 92.401170505832624 50.840186178651386
-72.570996370222360 93.576730605285675 50.089200449740822
-67.741987014096850 94.875251119446986 50.665695498892234
-62.842213547151033 96.152118412400583 50.141848609833964
-58.167400995443614 97.414044085907818 48.833544744151951
-53.323524684429131 98.724304997053451 50.224781723025465
-48.420541463100093 100.105858318225799 50.928306761942558
-43.577791915374348 101.506503857194687 52.357306506154650
-38.772955488051167 102.749873293462713 52.452562921548761
-34.067046916862822 104.141659924872371 53.189767419424200
-29.189528084302040 105.438456140902531 54.106798374623558
-24.241245028448922 106.777503421890302 54.011792374699994
-19.478827881357820 108.022517876731087 52.656120637237301
-14.537968203549919 109.198247524312492 52.359644057609358
-9.893490420473579 110.651165253830484 53.637708776892467
-4.890676904248235 111.879728877196612 52.723415890598062
0.008263545052326 112.999913686881513 49.571833880095156
4.765920765365664 114.125505981707917 47.610874150496926
9.566910991857231 115.090081979464060 43.501543124646673
14.619443394977949 116.106226990212647 37.531517981675641
-105.562432768277006 84.235598554095063 30.938461507267672
-100.866233867876545 85.994980243925042 39.683782867866483
-96.097942258410598 87.676793577210120 45.190855690092491
-91.351696001778691 89.106642409953409 47.384176361700163
-86.579970013613945 90.517283452024358 48.997888422547433
-81.653336628899439 91.881714289520900 49.950464434015259
-76.862340824749026 93.166657200604362 50.298866852616364
-71.929953050678435 94.413801576347424 49.599169570832970
-67.254690421188954 95.744631669223565 50.468615782499846
-62.348030775937843 97.000805996607681 49.406402372424019
-57.511741285344883 98.318635622804493 48.603254257836696
-52.682236564883276 99.600536935788639 49.891960593422702
-47.883339421824672 100.923787762950795 50.815835670709866
-43.104523920570671 102.332577874687573 52.112108944179425
-38.279766800692101 103.537023971679986 52.308257785142544
-33.498471970974386 104.946586117490511 53.344391830995988
-28.743957281096115 106.255387168816981 54.205424037674589
-23.839525522256057 107.658312974696358 53.783445478350821
-18.970800487174831 108.802441700407527 52.468099788635833
-14.157453932117015 110.043395160614239 51.986785607882396
-9.349189525604119 111.396335188818540 52.897766872486713
-4.389783295463683 112.779460624785472 52.127285582768351
0.495250855054067 113.915694621847365 49.257515858592249
5.267288240876791 114.994387106298561 46.994564126171930
10.092176560015389 116.061415217549424 42.055494514968508
15.117723417086413 116.854788370109489 35.639768212552354
-103.585215898707958 85.877705906729133 35.723686961533659
-98.954003830363845 87.515391679494272 42.006032020451045
-94.187219935584906 89.061652863559033 47.026117370058230
-89.379508401692163 90.340101942087998 47.885634675422587
-84.523809187798747 91.831972156064850 49.266032405368101
-79.657962361422065 93.108570563556896 49.789417557970715
-74.818851195016620 94.519426536427019 49.834700133163523
-70.155750603718133 95.668776456273719 49.457639472690822
-65.200397076579861 97.132024584457128 49.989269143527423
-60.394326223559119 98.162854201759416 48.091738149460333
-55.545689554910595 99.581535398195001 48.722792205984824
-50.841820475583368 100.894663642785673 49.793330605919813
-45.838511198185202 102.219222926273119 51.425005232719172
-41.076331454688486 103.616294675453318 52.005672160075740
-36.256767510492786 104.897303230225290 52.961149947586534
-31.435532392308083 106.320235387158348 53.535183581953127
-26.672604609108358 107.595999492242569 54.012251213768636
-21.808955065822431 108.880575955084808 53.032724074908053
-16.998413443863491 110.117345538967413 51.452811696420312
-12.168688280580483 111.350056312831342 51.679997279907276
-7.279603572512169 112.749671566120014 51.990559385404701
-2.380762403044542 113.882869268907513 50.140219156350824
2.382797880197955 114.969648553428257 48.485165109639127
7.215372975714629 116.144930550246528 44.905011117110199
12.223451009446915 117.066707285727119 38.833681085873664
-105.981043811853041 85.571746481418430 28.552493804017264
-101.189733031805631 87.399055649851334 39.090134666771959
-96.437703581348757 89.160196989241825 45.737845454614543
-91.672971846782303 90.505993323401896 47.101054872908669
-86.833678525064016 91.850506528136250 48.245516533500357
-82.067775363575706 93.158948319903942 49.037628346866200
-77.266689245540476 94.581443695728268 49.547702161290495
-72.361008921202853 95.812177466884080 48.781918237277480
-67.489119809920780 97.098047748789639 49.558481035955843
-62.729131147526601 98.288568921723694 48.652309171032542
-57.853049597104842 99.703217377291011 47.829115343542988
-53.103222536166648 101.063198386427956 49.008874887020298
-48.141490691245544 102.254096532732618 50.169781311806304
-43.496153757972834 103.772185463036053 51.502149442627207
-38.530913400738612 104.979466029727519 51.945697751889668
-33.765070765584845 106.406756070661658 53.091425249901967
-29.031111774500062 107.619463978985507 53.923293191062086
-24.144538949693768 108.896224972075615 53.365177803471894
-19.214656608550921 110.251133795240122 52.325776324909384
-14.406726134937273 111.347162953603402 50.907877607263167
-9.598495424943547 112.734136740389303 51.502215297430858
-4.829873886339204 113.982132878346732 50.444000572790664
-0.101724143040808 115.191745519744543 49.019859732411867
4.974259734709168 116.316798095938196 46.608106353815749
9.903475521850037 117.405235573821557 41.370330926857051
14.715196048588687 118.146800884460347 32.221612899337401
-103.045787896215586 87.481939887977376 36.336794130309329
-98.279122151157878 89.221947748070022 43.900232499322883
-93.543823738136837 90.790060720714621 47.564773203150757
-88.849088065931880 91.973455817519806 47.558519953160342
-83.965633337810957 93.368339089403676 48.508469723523277
-79.087685684602221 94.788492875524952 48.764880216080442
-74.247360967097734 96.021880086884664 48.922642078872926
-69.432913153363899 97.346329475971928 49.064718997709910
-64.640718596635224 98.553426415128598 49.061981504718446
-59.669766453306238 99.785154281728069 47.606769746142653
-54.974820359656839 101.113409098591887 48.281251722427221
-50.168281800968970 102.481957645491576 49.078231574995478
-45.282327929201450 103.885456586155883 50.801804865100912
-40.458922630689010 105.216879798193347 51.679669486908310
-35.666373675054750 106.530100879432126 52.750646103062408
-30.855881183182738 107.936030146620851 53.662772802347114
-26.019486188582299 109.165241551799440 53.412485362899105
-21.149024745400038 110.496177031541535 52.715581118304392
-16.339738553145871 111.721627166930546 51.277861855092311
-11.470885992423195 112.884152860833240 50.623832550959442
-6.570471213055676 114.209720036346852 50.075766275931194
-1.827731572790700 115.390952229769837 49.090825407481773
3.080657939390967 116.528524706035000 47.596089184581125
7.957594610339839 117.635165642407628 42.931090500229274
12.908430626058134 118.512315923358258 36.803025476764063
-104.384803013059752 87.756507802183620 34.301390651301645
-99.727976016677886 89.535571594873986 41.373148505427608
-94.948574861450055 91.039766763527041 47.699164605881954
-90.148163493495076 92.448816281303081 47.447426214290829
-85.216377619416789 93.766179189220736 48.094408893740649
-80.485626412461343 94.982101929803463 48.223737719885193
-75.604930287881288 96.262850091453004 48.402080210293967
-70.740850283451891 97.700065489508972 48.608808628683647
-66.039712059671615 98.886396327588130 48.643014848064176
-61.064365502591968 100.116230646254195 47.283911685382300
-56.319053720459621 101.520566298926042 47.663583130945774
-51.481604335186709 102.841509152726047 48.440028155534819
-46.681852111577641 104.112083476676773 49.908857633733206
-41.827901855415746 105.427502040805621 51.159391173966604
-37.005251607454298 106.905655934296831 52.278986614580205
-32.201720319457245 108.277966432988094 53.113974949750386
-27.289796219551540 109.601645145934626 53.345706340471700
-22.454097143666605 110.761943487778495 52.726618231120746
-17.738528570182552 111.990598968146799 51.530099983117303
-12.875365830439407 113.234562698305922 49.987714370611116
-8.090211562451570 114.555434585045603 50.346816599458180
-3.154004337736808 115.718880412980411 49.232600589550096
1.608387646564651 116.948316292480982 47.671807466531028
6.547801415779599 118.097471030783794 43.975072649964190
11.533461929065869 119.101842842912575 37.715069854390102
-105.753788534945684 87.999231972416624 30.406297518438503
-101.264032448664068 90.464690620407637 52.917282613535981
-96.374035013069346 91.876340950886046 54.309188905271967
-91.560820158947180 92.823545106547826 47.455483862300838
-86.592935133747559 94.131262658829385 47.704492352631576
-81.842042341194514 95.375710025390106 47.753717266570490
-77.044180163199329 96.694265100506485 47.929394436580921
-72.159000251956741 97.934048824075376 47.980322825808912
-67.333738647957560 99.301111961702873 48.284831267668658
-62.439067150747178 100.476286357255802 47.231992628739590
-57.644841529893569 101.896067773576206 47.124412690867551
-52.874954781342410 103.187823850960484 47.646939747024476
-48.157292224489836 104.451408280928888 49.065596179291795
-43.296918787217919 105.922224547978786 50.594199420448589
-38.485012198579241 107.164686769711849 51.668129039473726
-33.594658203020963 108.460503356179260 52.751747226476155
-28.825239105950423 109.877635351166830 53.070793354956479
-23.939435561115069 111.187442013133392 52.737613134509985
-19.128231701269179 112.513419378141251 52.100794269716367
-14.200353186648520 113.525697825084421 49.974905945745810
-9.449268659233775 114.862708735898380 50.201088535464621
-4.604936795487983 116.213949212812636 49.045589578635571
0.235194615973672 117.317381327323574 47.613089951816406
5.120157031201511 118.478222258461471 44.720570528528683
9.983386279109425 119.522458836322258 39.052036249126374
-106.051310571134465 88.419610265427124 29.050281704072198
-101.608201773362993 91.100129854022370 54.378959086429539
-96.857984837582194 92.574430276934223 55.446855299650061
-91.989822904916423 93.722134285069004 53.005930887554833
-87.047952211647953 94.676868579799233 47.585866827377622
-82.252028417070221 95.828902553039569 47.321278432553150
-77.482880978434494 97.208746332688889 47.222563722055121
-72.667751655881915 98.589653120744202 47.368249778502275
-67.817536457036184 99.902776452014521 47.728412383136394
-62.955130872413889 100.988933662517084 46.813902911611315
-58.129179583215198 102.346273535146238 46.544486631487374
-53.268279515448128 103.721945320405467 47.129446385564577
-48.481041680648040 105.026290486943836 48.266258261501164
-43.661388111169117 106.452175321975730 50.187561450776030
-38.916212252244073 107.806474735276325 51.289456803797684
-33.973069143283908 109.081377531046854 52.346118657835383
-29.249904459370704 110.506914313389785 52.749436260362522
-24.374505630996488 111.684803906505181 52.592778228985424
-19.552688094209405 113.018814840188654 52.068365497861691
-14.708432026619569 114.216527729514112 50.060643680756769
-9.924071950334891 115.452242476027877 49.767688021476253
-4.914690855645475 116.808438043724237 48.865774741952876
-0.186467854589623 118.006909721000554 47.213351100526154
4.686364720665043 119.114169880478698 44.357635560398933
9.603176191673441 120.009808908392358 38.612365854364796
-106.891959597322483 90.309336702935269 52.109108170936018
-102.035679458451483 91.814339692236786 55.116849115141051
-97.211923769567235 93.272081099246705 56.356306688898691
-92.440812777557923 94.554806226018599 57.389488481216496
-87.636039976841303 95.293198616480481 47.574730455580365
-82.675872878989992 96.542693361897719 46.795525880356799
-77.976374165260040 97.790371075714930 46.746521864245565
-73.018660332991246 99.065949467743934 46.918100008434209
-68.231426231666035 100.352169243304317 47.277767591649564
-63.386744999858180 101.704047425688515 46.502996229814784
-58.556917418379172 102.984426199543563 45.890076571243959
-53.703709798345372 104.302068009773777 46.601745227843686
-48.902989226712450 105.662706468656467 47.658347016555574
-44.093321618509080 107.060189072772559 49.699537456846599
-39.291947537661763 108.523396978533128 50.862665807793718
-34.511358768503875 109.850939435094944 51.966799450265803
-29.726432902637463 111.093480344809336 52.390895803123016
-24.772253863452107 112.422655526910759 52.529051854547568
-20.002547051631897 113.584137890004357 52.048981915224694
-15.203891483725155 114.864897085482852 49.872083636426261
-10.277231131824585 116.187466421709161 49.424947265198817
-5.484601693456192 117.358337903017500 48.278062842223392
-0.489569150489153 118.540339590191735 46.866047814087921
4.239060855205029 119.672486250538213 44.137742356036327
9.272924139771316 120.611507474978183 38.248437763083075
-108.271527017714277 90.771212194918775 51.483079029798816
-103.508492754219915 92.172308302941232 55.372108676172047
-98.682461979532448 93.556879864643591 56.853704542338491
-93.809780417323978 94.980158388932168 58.737060093688406
-89.014753494523632 95.953046722338868 52.399236679965725
-84.074797682262982 96.945577555418367 46.925427177239520
-79.210951383726993 98.230409298204407 46.252893355814116
-74.377174095225399 99.571588761427748 46.306092997553890
-69.530063376787126 100.781380560559896 46.475456925867903
-64.826999807934371 101.969062555631837 46.132445579908314
-59.927276327479731 103.390329424177338 45.385650480332387
-55.152549744460160 104.623263064713910 46.008558801344762
-50.130586190464683 105.986128975721044 46.654475005003867
-45.519350426488259 107.360159769860203 48.895035164536814
-40.652713968735256 108.738871018680939 49.998728071795050
-35.842882266324203 110.115723554991419 51.421027422711582
-31.042029988473907 111.415438576590930 52.002517024256953
-26.263894993770474 112.699169254874789 52.385939536583649
-21.318694986259768 114.060021147715176 52.079006633891353
-16.626520158082023 115.141350486709186 50.553516979328499
-11.590560285655091 116.457290956345403 49.010698376129270
-6.831426423507327 117.679325408780556 48.370945291556218
-1.977622089233627 118.921700287822901 46.821187369214094
2.870059643280310 120.116421451909744 44.593392309699013
7.796662707425206 121.287336240043899 39.484487886185555
-109.660924816536166 91.018717068255000 51.092206119117364
-104.899123775950542 92.530939533004670 56.142800846007411
-100.003183343488089 94.077348199441332 56.890220565695181
-95.310410204382137 95.359678538942092 59.398950531191375
-90.413491147569033 96.514084010647935 57.716517222882182
-85.518637183482014 97.215716152987866 47.602996628644817
-80.542182133737469 98.577610202316819 46.071782428398457
-75.696821240277728 99.620060095427462 45.864749434705523
-70.907526020094082 101.071967251342713 45.599054214625774
-66.098174186878097 102.265202798434160 45.625125759329087
-61.355135745686397 103.657647049824050 45.215314512490266
-56.392704105964881 104.953201654056897 45.027200100456717
-51.643892494398671 106.320622691391250 45.769802140695482
-46.808758880376402 107.748175567076842 47.892258552805970
-41.944342128317089 109.041864091786721 49.431617915549701
-37.170365056603444 110.395799521982028 50.726271165098069
-32.360911415177362 111.763994400263414 51.641024430687338
-27.639630931888945 113.005517910961544 51.921881803757181
-22.754726111401162 114.419504410164876 52.042630965732982
-17.862525533594869 115.591205200429286 50.829867844042710
-13.053505510130002 116.764246462979912 48.926984653394491
-8.098784749193495 118.031605066432647 48.349012734661251
-3.353731671597057 119.294020724464190 46.913714214913689
1.392864560015290 120.441750221321840 44.690272468327358
6.437455462778445 121.487552931696669 40.681166913758148
11.305736696410051 122.225311633268262 29.572264767159378
-106.900242424488994 92.805265395838134 56.157584897241506
-101.948705442085881 94.142272427293506 56.603692912824272
-97.167684719565742 95.586689896349725 60.239887871786223
-92.277803143634401 96.872559485769145 60.288435647592785
-87.354502412494696 97.797752776240969 52.108607219481819
-82.443563223187240 98.708064707748306 46.090665615387707
-77.650739839912816 100.056960383191168 45.487029427573098
-72.872049163533532 101.359669533843942 45.080178636557605
-67.984854527984481 102.571174258471075 45.140546310004062
-63.143818969206350 103.835987722618626 44.991382161752590
-58.280858011493009 105.128143434311582 44.465080733456979
-53.595452494638934 106.537689775357848 45.092485824920935
-48.693108484882941 107.721890500491426 46.140727455978741
-43.896694043728040 109.326033318832259 48.400223134544795
-38.967636847121824 110.479992829526253 49.701296946954933
-34.220689971872297 111.984801407643317 50.942723679784500
-29.430265776491069 113.281390187563815 51.325397908995122
-24.638739769704689 114.627377275696659 51.837027098782833
-19.762144911893515 115.947499011659104 51.008912345958677
-14.883156939616988 117.092140378741263 49.357612878156893
-10.166776582795416 118.409439064704728 48.446598622980304
-5.254576630326294 119.519301370383971 47.023164858995358
-0.366753486235552 120.641767520354591 44.968186764256231
4.468355974976248 121.780983564989768 42.192961888421912
9.472541724196510 122.829037097237659 35.107307965092090
-108.708989222938811 93.092454038501472 55.487992523773443
-103.798179596906351 94.472351083973450 57.473847336674041
-99.120818535625091 95.862115533954139 60.077972483758352
-94.266999892725437 97.089604548063775 61.222341763768128
-89.402320056004143 98.362272835493087 58.131255682762969
-84.463097341274647 99.124874275639542 47.367684274266580
-79.590765300479489 100.290271328804650 45.706960100437236
-74.673545467676689 101.526866977063406 44.769059921707061
-69.904337639100106 102.795104084483924 44.501155538450107
-64.954949375181940 104.116106190342421 44.651208148950921
-60.118245958752553 105.349369943836621 43.883727636503529
-55.300718208438447 106.584824369298616 44.346142917589745
-50.463235774629212 108.032285713091937 44.980731932463314
-45.751502006243015 109.510453043713639 47.523894999116131
-40.779670886332269 110.775880121879013 48.875983151451493
-36.066700879042600 112.162234019318646 50.341938928233624
-31.318215300196975 113.546023432043242 50.881203391138051
-26.562084245698383 114.837439269211771 51.581426329105234
-21.616420811387648 116.183712651892947 51.143357071051774
-16.794680091867441 117.203140603146508 49.782005171206094
-11.892816726231807 118.469458801110719 48.106843688659133
-7.183758048288379 119.654090929664662 47.278008605701046
-2.254491003977744 120.957115130344675 45.230763174646064
2.633617722165525 122.216616009651077 42.914354727579763
7.576113806793764 123.194646319400576 36.773662222457389
-110.511004996782475 93.131941540126007 54.443258310138397
-105.804971261015027 94.822429148879934 58.010817679156155
-100.890098019075609 95.879087476717231 59.291633424855803
-96.143665729826537 97.435375274390054 61.582742046058932
-91.217869463601005 98.682513850809883 60.946537366907776
-86.327965388509170 99.545843163775501 52.283044433455871
-81.463278318382237 100.478365640403382 46.358236363099991
-76.633158258731569 101.713119228145501 44.398526326018320
-71.670095725524575 103.001729327648050 44.136427741780366
-66.828570974103783 104.353128375902770 43.954052465678394
-62.003651478262952 105.614318497386094 43.859428352369171
-57.240049567998753 106.938032735937384 43.477207834474562
-52.462497876557038 108.248555881809096 44.207134343911235
-47.531465400803292 109.607300064255057 45.645110986809080
-42.787551467331312 111.050557929513388 47.919436354639750
-38.006239771982706 112.409972966383052 49.396414513052264
-33.256058267517545 113.742147771569350 50.673562278838489
-28.319869381541679 115.054933168344618 50.890085719956303
-23.519203738976426 116.188507866787646 50.989622480762314
-18.784237187287712 117.591222318212544 50.101950519285225
-13.822398169314514 118.770801471897428 48.326939569244942
-8.919577814512353 119.980679951431483 47.316218082805499
-4.021269547698282 121.284510110215649 45.470262088267084
0.729501993396944 122.445169420808341 43.286402779354084
5.623345114335184 123.456631232426730 38.776888985165733
-112.909988833799389 93.097861717586241 51.232367563448229
-107.957869861822999 94.853052861074048 57.511628327380407
-103.318525713088775 96.035883185231370 58.123945098679478
-98.426087900066278 97.311575195514436 61.602958332497607
-93.694266192213007 98.831022526004858 62.068005110396946
-88.755283293261584 99.873148033289937 58.468712279159689
-83.805243455589192 100.756691085210534 47.820813780142110
-79.002529204639984 102.020113892875344 45.756836743625236
-74.101073087253113 103.170267589349208 43.712415364739513
-69.250468337193780 104.425264858401036 43.239836081018524
-64.387424046510191 105.631445106142905 43.775294097653607
-59.600545891173212 106.722620179052299 42.665041021306919
-54.728777349420312 108.409533483731266 43.430839204574852
-49.959469414019701 109.527270832848970 43.701305866533183
-45.130542559187106 111.073900363756977 46.717252938107485
-40.285119880979771 112.330745054699321 48.202351044390674
-35.496615578608946 113.662997076050033 49.589214244961028
-30.753436936146144 115.028929394290543 50.221380448444542
-25.859935070575695 116.420401359292640 50.817087885681850
-21.045737859548854 117.624507444111941 50.166654667734505
-16.253486288691704 118.956476017932772 48.618256980800510
-11.299163598929859 120.082326190887883 47.108059626688025
-6.516379903066241 121.396551752953968 46.414016942572623
-1.732633800258949 122.551195103468487 43.846907371320263
3.253433037443443 123.616906198633558 40.894509888828679
8.139582845429761 124.685119880540711 33.122807830796248
-110.434518575089243 94.699163089159342 56.132128351940381
-105.641884554562239 96.286272391997215 58.715254291407028
-100.757105832796867 97.527116250321001 60.467947803161017
-95.986325046958370 98.826799915769968 62.412665504804444
-91.200867642929637 100.066624454425295 61.565656649873638
-86.269719574618321 101.189294823537736 53.250239585443424
-81.382476340306852 102.131142254477609 47.714242191182763
-76.372306220108072 103.183334772879050 43.930037276228617
-71.623521693315695 104.449444943526657 42.556074082297741
-66.831410871119999 105.772061896822862 42.830831520283660
-61.845666172259016 107.067092730932828 42.573418331961051
-57.200233224422590 108.259649367562574 42.459160889348887
-52.265865932908071 109.678509689119892 43.006365213822370
-47.522422719063371 111.016695566255919 45.080121764939086
-42.720856601982184 112.469834854399409 47.284416956168549
-37.802695379841701 113.913490771074734 48.537741939806139
-33.106357991492544 115.178422538733912 49.836589488584615
-28.185673962089140 116.541704417176533 50.369955592363858
-23.300434430048075 117.821160604074549 50.209619211442032
-18.553758682001494 118.987393602389005 49.255064004862895
-13.651115347542042 120.195692224758503 47.484628008827755
-8.948709612770095 121.515751434533556 46.595915003655804
-4.070109372107812 122.623430125446987 44.649182740442143
0.845012229863826 123.877402127385906 41.890571510499598
5.821183789791778 124.837770019339104 35.913987029890663
-112.273489548103981 94.878270344398160 54.533677343493316
-107.454729825316662 96.395247418092282 58.651700532568668
-102.677449728977535 97.730450243713591 59.171085023995545
-97.928817283135018 99.202095001920142 62.591374280508312
-92.965006713396448 100.392025409173428 62.541916395004641
-88.154341322132396 101.628416033763500 58.405512453110909
-83.133056863322537 102.423125141287102 48.650181842834058
-78.334480213611869 103.488997806247937 45.768902765470934
-73.546451628962203 104.682655612702519 42.421300268796116
-68.565875017763616 106.070441370931078 42.041937111872443
-63.850755620120481 107.341368531981573 42.628593433215528
-58.930717953284173 108.561837832760617 42.013817719078617
-54.178074604595039 109.835985943880459 42.173277810999394
-49.336573666155033 111.290844014584067 43.262186214737952
-44.586594561240027 112.635550374727046 46.135105876336439
-39.641589627148988 113.926705579501899 47.531931846833103
-34.878918949147661 115.329613260626502 49.222780274743634
-30.112538029462549 116.685645947020035 49.646061871664166
-25.212380380871377 118.090480355287696 50.160732305760810
-20.285027858006949 119.232879433927337 49.271997955856364
-15.625566687296438 120.436384414668467 47.777818578670676
-10.723129616601558 121.672096147681330 46.529202207597216
-5.896698808281908 122.872320310021905 45.424320858170603
-1.105078964056869 124.005757045836305 42.181265028413954
3.808189065710309 125.091878352260508 38.027421435233578
-114.122709896630454 95.084982534815481 52.509324537089164
-109.373768495510404 96.542792475528870 57.958091982511085
-104.550288320861327 97.945654048324002 59.000082853537535
-99.670994936546492 99.369235474372715 62.083624687417263
-95.009300407533388 100.682044192076745 63.072777838922988
-90.081979821588021 101.928387908290148 61.142586512463112
-85.124413403339091 102.755795616048488 51.317513169487434
-80.176103210256443 103.927624218117231 48.144812230509316
-75.358627174450447 104.905109079123150 43.156061655392840
-70.509239022613357 106.149874154755310 41.260561733260722
-65.755047050045150 107.423606802959625 41.982640766414889
-60.874554328039380 108.697499390043674 41.697012478812709
-55.983996488081914 110.016576895267505 41.538062884253613
-51.195713279026890 111.224234581816603 41.838144390969553
-46.429389573207281 112.803217591113409 44.692002464593720
-41.650944143928072 114.118001389830994 46.342091222009458
-36.806267621793772 115.488209160899800 48.256075947543387
-31.902609193825306 116.982076973338053 48.782139485727008
-27.275237526770383 118.216781422870667 49.587615522799574
-22.261397953400728 119.460465305311899 49.309152470324470
-17.473979949817622 120.783439487830719 47.906119054459943
-12.631518738244292 121.848297112480239 46.437580577468502
-7.746126461569233 123.243442006576302 45.571180259306360
-3.007228475976959 124.418221308767031 42.978526332756857
1.950178297030064 125.491284443419872 38.828223915219596
-115.456179463884695 95.324880857448292 49.700031109884499
-110.728004190409564 96.952730166953501 57.324611551419757
-106.008225067983034 98.316275395455449 59.413610799299050
-101.133184052128570 99.671154606104977 61.495945573291074
-96.296851679851443 101.055480808167317 63.267473764491235
-91.523473479401403 102.298687076009543 62.347885088350310
-86.468148145199194 103.273285935377444 55.070997560649765
-81.613020785858140 104.347371886405639 48.910524295639988
-76.739008991180171 105.388337429492779 44.772114780663088
-71.876910155345072 106.564506804838160 40.845919988143521
-67.035883219187923 107.710412423563170 41.174715382041867
-62.291995418120138 109.079624607195854 41.165222209109103
-57.409884340225901 110.442229042598925 41.139504197885060
-52.611643576296970 111.685143225116207 41.038476294713604
-47.707664379604765 113.004802906346484 43.468437934143665
-43.068386019704803 114.380763150290008 45.555961443383737
-38.084570718527601 115.968821571432287 47.689438008576296
-33.290839617505519 117.146143253929068 48.105463915279344
-28.442025057544626 118.474531510821194 48.968000715470076
-23.729140139326361 119.755562504143640 48.667406576807480
-18.868459926238842 121.086889963065872 47.936364800943721
-13.883572513343275 122.267056727527446 46.429768180037513
-9.182291959822575 123.599226438638581 45.434536066307324
-4.209383614977039 124.830794498183081 43.496608491872074
0.535261866089108 125.879936676626286 39.565324732846769
-116.063450986415603 94.791546133212250 29.427843696450541
-111.725153521054551 97.386214295251051 56.680134243335999
-106.830093936003578 98.802347150683161 59.222681896247970
-101.966643114720284 100.201860989598401 60.962447817438786
-97.175811103261850 101.523296877443258 63.281505249449147
-92.385624670209438 102.799298554206615 62.627429858683065
-87.494805823635801 103.759635168004877 57.542993356711030
-82.510890179288126 104.798345245563638 49.737213201240152
-77.669346243240284 105.895876756162849 45.651392913886944
-72.874121631191429 107.001624758633824 40.905315104363467
-67.955846259076310 108.303159715469320 40.079430512648010
-63.168986354902543 109.598194761188481 40.899646104030623
-58.328452524192052 110.824726738374821 40.624790867230686
-53.523557415238173 112.210386197750751 40.386883828176032
-48.678148465118568 113.559955419684087 42.205258186676673
-43.899977265425505 114.952930665251699 44.792872213216455
-39.052063191079021 116.399615819239656 46.861268499563579
-34.236181329547975 117.702864890463530 47.693008815067380
-29.457481474739978 119.027066297879273 48.562109663288560
-24.672780226155577 120.385563557135683 48.549564901693543
-19.675149541995552 121.498875514179161 47.430094881591010
-14.958531352046450 122.799889060833735 46.438703767622613
-10.061287627460498 124.069392420047819 45.184317765995637
-5.218594192739094 125.345097097929994 43.638360085805907
-0.384524198125924 126.378890837725962 39.114516777368323
-116.528454594251258 95.495939872629350 29.165366571272052
-112.138417204302442 97.997750155204059 56.703237622387206
-107.184483303703416 99.443143500152928 59.157191882875722
-102.424800337377917 100.759356016101194 60.872258193045219
-97.655110282706175 102.116607685520165 63.291446505905981
-92.774319958824208 103.423488710603621 62.942276174785874
-87.977741222024576 104.535774805155029 58.353804078778133
-82.995851902815076 105.412361751979745 50.185002833601800
-78.112522339889367 106.606114673820485 46.252062906468666
-73.226162958443041 107.652223515414079 41.050863973864828
-68.372278151724558 108.837168297427652 39.485223477890521
-63.556487049385652 110.253096376942068 40.315621129690697
-58.670576130804967 111.540470322400125 39.933998884585293
-53.837852711292712 112.761865023972831 39.479235650595015
-49.064513175625507 114.152578140845350 41.341715830945567
-44.287943598859627 115.605049112152244 44.169776328881930
-39.493463663005706 116.881503270634028 46.242604818180276
-34.657248240135303 118.273258507905780 47.261775795728553
-29.837845185518411 119.637075998896719 48.004362461774306
-24.888205048052441 120.921129283787437 48.132288528694886
-20.186927207973294 122.147313492734952 46.921137144042099
-15.174936742393761 123.473572670388577 46.163154604928017
-10.441903669199879 124.672285152225058 44.677608894603352
-5.733522899295288 125.820130507075021 43.218009017777753
-0.790468224584018 126.907583028592896 38.534807320672840
-116.262496306741141 97.308895574496091 50.176068458844661
-111.309416764313767 98.869864006352500 57.351581946227633
-106.709515278441387 100.298871310961061 59.276070225419616
-101.952952274982877 101.766990109725256 61.683601125081040
-97.036414260209611 102.991702652590476 63.627113299151098
-92.228213887673661 104.350649826653907 62.618265191636830
-87.347842013115667 105.389563435710755 56.925913603674161
-82.392818413186177 106.318784902240282 50.052896311949667
-77.633386709718380 107.435906519575141 45.781905438322106
-72.600017005634029 108.456221117428981 39.355351833330189
-67.880677358643894 109.732065419073294 38.797270859186071
-63.036110282786254 111.032098160216322 39.921836282407817
-58.163701457762699 112.315672919773206 39.021459140955741
-53.314179513763001 113.656877425302824 38.545288503803079
-48.528523087605876 114.918012891669150 40.932775291889214
-43.717403745146299 116.420488198714892 43.851191887657983
-38.969501473228817 117.845952866447931 45.944095113611965
-34.165207173987909 119.119254080651800 47.089281262904478
-29.238811353552805 120.400931412451953 47.407280979035811
-24.481393643950828 121.783197410419447 47.075811061028851
-19.640610853641689 122.904856327755667 46.415588060866007
-14.815821286087846 124.237837130087712 45.590418039673260
-9.872703393559714 125.416409085901151 43.889929032790775
-5.042135398885886 126.618407037942575 41.970660358451376
-0.230446153746513 127.774349011035426 37.009947974719836
-115.256401761679200 98.467924422455809 53.224077702152059
-110.440012335410117 99.924320371303395 58.181605584160287
-105.763231784273898 101.270642835449991 59.296648475655623
-100.839223262878448 102.617226626872508 62.596754210014339
