ply
format ascii 1.0
element vertex 809
property double x
property double y
property double z
end_header
0.766137008408180 122.432146907338975 43.308240065463067
5.645722822872749 123.450555014532583 38.700806718904957
-112.813988342125100 93.135215165919675 51.194521390803764
-108.061453222659566 94.698280193610685 57.557588608688803
-103.323354757724317 95.961674783394344 58.145115205285300
-98.497064889263086 97.448119592511247 61.528519108051498
-93.592718011845619 98.825010789147470 62.071149444150500
-88.849469607563961 99.842441970899301 58.464698866966046
-83.932453472204642 100.805958815365344 47.938211668796029
-78.846755143992596 101.836831065583240 45.789825023612210
-74.076490517097781 103.175128020466829 43.707229789326270
-69.313700882235409 104.314896569045345 43.188906087410629
-64.441676631774158 105.677692454331719 43.741085770866540
-59.457203241895741 106.921087339154553 42.672651743221238
-54.703413893822990 108.422384757884160 43.304386345040527
-50.049490084695414 109.575342090187917 43.687197649594914
-45.152833814610815 111.018363271853332 46.794633122995911
-40.413875879554226 112.383359038335939 48.150828227115106
-35.609288711712821 113.731495215118215 49.640380511714049
-30.552947048063054 115.125476114364389 50.201957876237280
-25.897486425944894 116.397287673070736 50.911243825391857
-21.112672702056244 117.607365666180996 50.264468582513132
-16.169853388739654 118.882433030255655 48.758710456251684
-11.367101071779576 120.152995645546838 47.157522242834673
-6.422712826982806 121.429435434451506 46.431944633112636
-1.683649024843419 122.486643523779250 43.875538044866190
3.262124956095743 123.596043568001917 40.946767023583874
8.207101064633278 124.473691349856722 32.987960402597118
-110.329813695389504 94.762428323121270 55.989672772644404
-105.658874793153217 96.252945140148796 58.716314068841058
-100.923315543392533 97.487467976553432 60.398021030419208
-96.003652733942744 98.801697923014856 62.440207097077007
-91.116914966247251 100.238835895366776 61.620919854305335
-86.151986669399491 101.074992579538304 53.229175950589820
-81.373420137459306 101.988140968457273 47.614298373252140
-76.519790539172050 103.208501968391175 43.960818097605596
-71.561888347925716 104.403921255811980 42.603309951753140
-66.738679012370241 105.669683938492412 42.728139653201765
-62.057132742014304 106.966938035150093 42.588909407102726
-57.066470386975610 108.278199608995990 42.433208996607192
-52.435116543131308 109.707760425291156 42.921131455441270
-47.439934993972784 110.958856680253774 44.970800802778449
-42.614778440165516 112.396698122185512 47.313747475394543
-37.945574925518258 113.824365727540354 48.584056646087831
-33.092272268021937 115.259896822010489 49.736642330713458
-28.233348957719762 116.587982167587583 50.352777134776218
-23.364204284280028 117.771973302311508 50.257776984596127
-18.643128385498812 118.927037727652205 49.130400428808279
-13.805623965527154 120.333220206745622 47.510012092641794
-8.908685690167072 121.490319357680789 46.557304428131843
-4.047439296786933 122.647661061600004 44.761475721783754
0.910222950252347 123.878893086424640 41.947788810020299
5.833584016308201 124.831558836690817 36.013531270691232
-112.142241206324258 94.889471238401683 54.513214930269577
-107.522789524790312 96.313167832737363 58.628580380230090
-102.668778898641008 97.628828171864001 59.113710878254381
-97.827089776576486 99.192286206315586 62.528934460787411
-93.120103206343458 100.385567463217541 62.468484962095204
-88.090244382298778 101.567684527238228 58.501065323017841
-83.143522924671828 102.502284101848275 48.846266046125820
-78.450022448464225 103.655850881111149 45.687481318986173
-73.509558196316632 104.667393475425939 42.500189621964346
-68.611435152836435 105.914371126510218 42.021065411822732
-63.891099916334696 107.230659115853385 42.569108404519717
-58.978986065869833 108.512699679371806 41.978307190196787
-54.149733889554525 109.808188659131019 42.188528167033475
-49.246356616320199 111.213817055245315 43.280282645663753
-44.554106772154441 112.581771174341270 46.221347799681354
-39.690647505872150 113.965177047428384 47.618068821360147
-34.936653084610128 115.357229349649714 49.189566288078083
-30.114434095231601 116.696629795579767 49.620242622710066
-25.211843458940013 117.871437289812789 50.080939514318253
-20.503590916786973 119.255035272917198 49.135604459290143
-15.528701415010644 120.439781567202118 47.614685754078181
-10.721339728002139 121.687564186837690 46.494597191558846
-5.939006133966057 122.978437130602359 45.352893533929389
-1.022191785086584 124.043129822649931 42.194169938193383
3.809972573757808 125.181075852989693 38.025881332520726
-114.073868761864020 95.079028788291865 52.515085489490446
-109.370430164187056 96.701422766933419 57.952959731628830
-104.562339810928123 97.956332313009099 58.909776187943343
-99.801609547012916 99.297998841854593 62.012750582392663
-94.901323844173987 100.718087746001913 63.109588686828815
-90.045701461915314 101.863812067414642 61.200779343650503
-85.150086876223611 102.794655657763315 51.401782250444896
-80.252287322771366 103.781438234020911 48.053117365527193
-75.308699244632948 105.023468704052831 43.129768629057679
-70.434042789833114 106.111146337290918 41.118021440079673
-65.654513707469079 107.476396896508845 41.884316346802891
-60.828902140399265 108.839073791583274 41.584566074512395
-56.004116755363775 110.058744263471112 41.530115623357318
-51.202599974048724 111.401336230873710 41.759737998900420
-46.366415163647105 112.873739092321799 44.741447598400249
-41.616430981744003 114.232892309417849 46.297548424442780
-36.760939174553663 115.552019279793839 48.257904063447718
-31.994959908373296 116.889010541063257 48.760498405769575
-27.135529071667989 118.163265670315738 49.498992373963169
-22.234142046679320 119.550392139406355 49.181603548284535
-17.402725063226061 120.732922607804184 47.949252524676524
-12.595091837591312 121.953125031645726 46.398740018304181
-7.764619300340282 123.148407664978620 45.701964173694265
-2.927115607553247 124.350741533848378 43.034138509858778
1.952829715929582 125.528613943291163 38.839137613988058
-115.410129136647470 95.208995247855810 49.732343835744224
-110.657860579134606 96.969297902454940 57.260245101745575
-105.822800018065607 98.282421676073838 59.253956780007428
-101.103415042083924 99.709660898112958 61.441783374437151
-96.301563901076108 101.067235581388971 63.231804850018605
-91.450436431277197 102.283818234657275 62.254549807813767
-86.590593108315616 103.296419054059882 54.981505107673101
-81.689566569033730 104.283310978441335 48.960011474347290
-76.780472141467257 105.388161410167186 44.711882692179053
-71.962633647894236 106.440140730274408 40.775385432393755
-66.999734282519228 107.878188089876559 41.091461855808504
-62.169213975812042 109.123873220095021 41.157807519710317
-57.346763062681106 110.365568017491270 41.018899297537388
-52.535702571570248 111.660315560962275 41.004197674319173
-47.806977808838845 113.042157218589040 43.272584343699769
-43.021367854196988 114.510265116160724 45.758345119713063
-38.210765038061943 115.909028115513763 47.769501936750842
-33.342330432556402 117.182456997943547 48.189404392127976
-28.505747746280278 118.499206848892328 49.073393707498155
-23.712241648349888 119.754176239349405 48.819566095320425
-18.814864352724456 121.119553943967531 47.923598165969921
-13.983235421079847 122.363526720605662 46.390981252154774
-9.191034592376287 123.573399479432652 45.382030937943725
-4.188291344294701 124.698648045965996 43.392716386536193
0.514025349661150 125.830964421854006 39.407832927604424
-116.145266806045711 94.846377452896917 29.367126111340564
-111.633876397813054 97.492043265501323 56.755628651325289
-106.896645761570056 98.912848414046366 59.346757453825958
-101.995407632278074 100.095990941119794 61.063461385144649
-97.218964201347887 101.514014883013985 63.243251468757997
-92.399429713143121 102.919121792919427 62.719257355457941
-87.527156360258758 103.987511625989256 57.432921715943976
-82.622472047994108 104.787175397286049 49.668862866662558
-77.695283777730751 105.921854301585128 45.683961889818356
-72.852683746629978 107.041466729445006 40.919671859805959
-67.959587978665127 108.363076390720622 40.182244906629116
-63.101681698245130 109.549402840581678 40.822845581804124
-58.346371382521497 110.840528799433528 40.515907859557842
-53.455562109842077 112.097297812729607 40.349799820298415
-48.634995000493106 113.462890799152802 42.097111266797860
-43.940680202549551 114.877705869351843 44.874674469182700
-39.030348979247009 116.280866000451653 46.807183798688136
-34.250918649631416 117.570751886128932 47.656821771636224
-29.499776000201891 119.014766872371297 48.523664285509973
-24.583207589530858 120.250090473059657 48.657164949635721
-19.748040581060078 121.527752404433613 47.341604183896735
-14.879759573754939 122.732843197279422 46.334135273754050
-10.096970262832640 123.974151663396299 45.094416960804750
-5.138423339888551 125.301609350872567 43.681068005013557
-0.474116188327244 126.269807816182237 39.149772980962766
-116.587034832614080 95.510745835575875 29.221305381644395
-112.110561110172867 98.016913180412246 56.620884285809275
-107.186548602692810 99.488384806679306 59.303864056981141
-102.418498500668235 100.779146056857712 60.917953307484190
-97.630883192818715 102.139010578044079 63.308515771582037
-92.845994891903331 103.402491896481592 62.920121063100744
-87.871544486224622 104.536881166629428 58.308524635179964
-83.032467346314377 105.391051930298914 50.228344000413244
-78.158949925002588 106.648596495929837 46.249451609537552
-73.173001565960291 107.614052990856180 41.090396346896235
-68.307793861791794 108.852809788255655 39.425743967495691
-63.695258611971468 110.117644616366903 40.314042060758034
-58.742744768658255 111.549213453927393 39.940851414273283
-53.896131724261622 112.755606070956588 39.340808660372872
-49.115525107213301 114.131358981776344 41.306001732753856
-44.430816019133331 115.547852836339828 44.164046503299090
-39.561042818756107 116.937875900922322 46.260035562285182
-34.688656464718285 118.177416603206566 47.255004371715614
-29.971679260398162 119.586037465534616 47.920962715397714
-25.087680289587997 120.868766172219935 48.217363784525112
-20.169440519800546 122.164353385327118 46.999446690895425
-15.315727376062526 123.403964919596206 46.150676801694303
-10.487321035327334 124.688076723154410 44.766115741420741
-5.575029259386834 125.858998598532338 43.271217399011974
-0.792044283825607 126.959547505989306 38.458117640145630
-116.286393802386428 97.257926167465428 50.314127374341552
-111.564920035069463 98.834359722424551 57.341588367503242
-106.769102564000704 100.212254425480694 59.319254683728524
-101.913234756333566 101.732312953193073 61.588103949394281
-97.030982708750173 103.080410991497672 63.692782312745173
-92.222045413727159 104.167911983144677 62.607408370166731
-87.391341895890321 105.375262243413346 56.919209280811813
-82.434593230360861 106.364946095195137 50.195054547162840
-77.646133150799358 107.419899297603180 45.746062376791443
-72.606848951298858 108.484263245134940 39.460071427597555
-67.849517997577635 109.748721699814325 38.865336159410916
-63.039256253541652 110.988881045209638 39.926859257743303
-58.229594490077275 112.358338450598850 39.018159837600692
-53.400863082174880 113.565590517820851 38.608314406466306
-48.623851133484806 114.977844210191066 40.907368120863786
-43.741937117978658 116.476965434165933 43.858323323463814
-38.982049415558521 117.811193879012791 46.070107787708373
-34.102458228035495 119.147746702958344 47.032854431308081
-29.353980041686292 120.433307387507000 47.415605439688008
-24.446723074905528 121.789112320900855 47.175871507977924
-19.652697275418973 122.909174402714299 46.406709873810037
-14.801935453266267 124.253840486478268 45.379944027404804
-9.908874428617334 125.492447473675455 43.855794551015904
-5.114814018635812 126.698303989699866 41.967780992292511
-0.232459560472691 127.726192586552287 36.947395828036228
-115.346971260087145 98.511194424740069 53.157036842267530
-110.618526743064876 100.086758980500775 58.221539399295970
-105.691562253390970 101.368945000384457 59.184139584077130
-100.811447928927706 102.771073303143723 62.465634199115115
-96.092468663151493 104.036499692211947 63.552812894376025
-91.252352188148620 105.211482284184967 61.678350660103021
-86.351855151684376 106.238749199394164 53.521491326367865
-81.343733699640467 107.308216301969765 49.632707470970693
-76.520932571653631 108.444786421213763 44.745970813044011
-71.613454952768549 109.313291181332787 38.084577762358691
-66.816406223262575 110.705628203539248 38.187478534466692
-62.002499670495567 112.045253328512743 39.391421270196794
-57.051811596569877 113.196388122842990 37.202586386399176
-52.274786884731633 114.658683575025833 38.034720984419778
-47.435247732334645 116.003748477844894 40.804288953309680
-42.746056906336342 117.415445282772353 43.330474454943932
-37.914181834905456 118.780744689214231 45.628410960385125
-33.206484260068514 120.080457998893550 46.306442045961575
-28.266031019332800 121.493129618122197 46.998482446958803
-23.402217669237125 122.739917367751261 46.276195310725868
-18.516678842079230 124.056581778447367 46.019649943775619
-13.727034411830509 125.270753862741145 44.845815352452938
-8.990401625298986 126.457580355055001 42.984260747420635
-4.068326272906891 127.512187282918006 40.382099740855423
0.850186192460018 128.650202434650851 34.372693339224817
-113.816625347343077 99.661507712555121 55.587066126097461
-108.984029886406034 101.194100670058049 58.827863508392952
-104.263716489284306 102.453196516188683 60.429816905636855
-99.432062046554748 103.807467653481552 63.097464697157051
-94.556097941954363 105.108646445723650 63.285396910093823
-89.814818525004299 106.410255647234010 59.815313624897996
-84.740958033517231 107.348872564105875 51.729031560597434
-79.891302494726020 108.388140542266981 48.352947786470004
-75.000782302573270 109.485522173037779 43.149146159374226
-70.128613977526697 110.532787937971293 36.621289053091033
-65.258964672888467 111.846665827517910 38.175862320169223
-60.463072641064969 113.155326331932841 37.996303441080720
-55.541413378396122 114.326965098556315 36.135177355083385
-50.882214074445855 115.749971712358459 37.686380723036706
-46.014300283939647 117.082816645577921 40.920159651202589
-41.196023569618077 118.567431091856932 43.392865996454709
-36.436048133988450 119.918661930849922 45.377772657435415
-31.632362303562502 121.295576197637189 46.296653327361881
-26.769743650218420 122.526575861543947 46.274818161495908
-21.939800133984015 123.742240835563166 45.256251126443232
-17.104144901312971 125.079232068646576 45.412355030893956
-12.127151611195210 126.290158871618203 43.587132218905573
-7.364229589832270 127.481312962742919 41.613021726372970
-2.471843317644133 128.597161067695566 37.391918996959419
-116.630607750535447 99.295710807044799 51.248102574411575
-111.902998981009887 101.046682810072838 57.488805439673335
-106.979313142245601 102.446353857947969 59.576781656598889
-102.263226780578506 103.882583213776144 61.941858300087112
-97.396073191605552 105.183829376311621 63.423724721840962
-92.375712571214223 106.337934586982612 62.246344902381672
-87.586142005414928 107.413038790303318 55.819831995398346
-82.825514040675074 108.475939995133956 50.495036752626248
-77.871253810124955 109.572072064036561 46.401020964831559
-72.884848405760309 110.601353028209616 38.898439474965315
-68.128819177838366 111.785305336725116 36.352043770857819
-63.248812264140426 113.069114480877118 37.981122485565891
-58.470603977669192 114.199342578700723 36.196261201448145
-53.522304468767814 115.493781653293638 34.113250332204636
-48.731033623764588 116.956108630201058 37.966087963999158
-44.060643752838160 118.460128406722873 41.085694845633853
-39.250858529002620 119.883533645008541 43.675337710335604
-34.470560770551018 121.168675550850551 45.155165142930905
-29.561973110003528 122.464105584767765 45.873294740700885
-24.770648894484687 123.777699288035436 45.142759166292912
-19.901646527016972 125.027874563079777 45.165805920158817
-15.021182911395968 126.312585003757576 43.971637367341039
-10.178618558057224 127.440024665098917 41.294365730574143
-5.411883315061655 128.688029233202343 39.501345923633714
-0.457747596126524 129.590995414389170 30.965589958376817
-114.187166941761603 101.024232617797651 55.158149456173497
-109.282174095001395 102.386913016458408 58.845758152620476
-104.543031891783016 103.774863683766114 61.448423665031285
-99.755891204134159 105.194697955344267 63.156870539437655
-94.931910082034165 106.529073824491178 63.218869782404830
-90.024523596595259 107.680810301959411 59.492199027530887
-85.042900669281380 108.656734568331160 51.923791093121380
-80.247827219665936 109.865457075893801 48.965324208746971
-75.429096748135748 110.890825762474421 43.221236855733373
-70.462921089131342 111.803168727971993 35.327245448011752
-65.706897751798465 113.108894990709715 36.565400908310423
-60.707664141069387 114.464264423311462 36.404404719673536
-55.902342432299065 115.507748503367935 33.203982730227821
-51.169207307586206 116.869704537616911 35.059269586693489
-46.266697149840979 118.455228616404867 38.721682458517591
-41.531555266592626 119.892255886186064 41.813098248881559
-36.724513883052694 121.236574219190047 43.918123290125301
-32.009202489919851 122.562478680026445 45.079007438857019
-27.141185651661971 123.872723599151684 45.014043850762732
-22.365693500011961 125.142607259307368 44.492566195494071
-17.421080602770083 126.487689286793298 44.169751970686640
-12.554630105503833 127.642324506419172 42.030664754363656
-7.710839231011978 128.786575760371164 39.683224366230100
-2.878365371962872 129.807722241216851 34.599298892538570
-116.050092475810573 101.011787412024077 51.490378542071134
-111.127084502215880 102.664129127993917 57.870430435410682
-106.554452593283074 103.999093378063264 61.356232997397456
-101.630201312045415 105.406565764615422 62.441030294741218
-96.688955639071054 106.639858147821343 63.096769689198389
-91.980398893471232 107.908931009604274 60.941769397009082
-87.134603557942370 109.017671015521842 53.807334379837748
-82.178767471720178 110.144299761808597 50.008117625332609
-77.287483831084558 111.154610751244164 45.046841036549672
-72.266630031737733 112.090809751684930 36.936837657567565
-67.520638574434017 113.387422390132855 34.771911926457186
-62.765897741021107 114.746095006690837 35.651669117048584
-57.843721718957184 115.944137118204793 33.488770430755480
-52.994551947810763 117.046007644551722 31.804193684752661
-48.161097489876617 118.525168528272502 35.630262121144241
-43.320689996529836 120.124887164128538 39.894416757686344
-38.576583794157784 121.384458287941300 42.358267706456431
-33.785580139112639 122.851377528759656 44.158219988783038
-28.991651607822902 124.000533615547084 44.039068361997650
-24.182186298829215 125.381492003302640 43.948629254658549
-19.335557432296721 126.710609526211812 43.919706549734890
-14.397901437922542 127.912939343085611 42.534297356638987
-9.557292456629934 129.013632435691079 39.107247939868998
-4.853954606139673 130.139169628713262 35.597210574956662
-116.453953202812528 101.759844446674293 51.099415014764844
-111.638002700248450 103.340530922692679 57.593037358475904
-106.923794430581040 104.723249689684295 61.420251812325574
-102.139175976301459 106.062741021573586 62.658854730465414
-97.264126924127467 107.328777562639573 63.069400048438233
-92.461562011900639 108.434329980408819 60.831933939053322
-87.467707849758639 109.806285468791074 54.202047613201415
-82.554242778417589 110.780738694895689 50.051820124152620
-77.810251004240868 111.786291973061395 45.267524588896983
-72.820429344979061 112.891078122049151 38.024063562861741
-67.841848410413633 113.956035770135358 33.363717106558653
-63.189098860647277 115.256934248849831 34.498343445226915
-58.284580469665578 116.424979537341670 31.819724594484249
-53.374382049493263 117.690059783838024 30.335784063974522
-48.599802006403834 119.087305500937291 33.064903337199830
-43.761603302190522 120.546125804004916 38.077016873544963
-39.111158100120164 122.030651702742389 41.312311190389806
-34.201600117632516 123.357555947641103 43.091167252363739
-29.389159289235714 124.717518991993714 43.148096664100358
-24.564519317382040 126.037945938944773 43.246338122081994
-19.697096094689805 127.379611128258560 43.159004447399504
-14.969529069373657 128.544433568464655 41.819676187782179
-10.016152727322300 129.725457045441999 38.235886539928003
-5.202921878760698 130.765742948498144 34.726095294291241
-115.877629040661262 102.706205905231627 52.669743073341593
-111.137422584873661 104.176244988790302 57.952649830364777
-106.414753035480430 105.627965543938146 62.099108315689413
-101.468325680602248 106.824643562687527 62.776069844296337
-96.646223391213397 108.285603359234415 62.735020973531746
-91.889476682280019 109.447208388519442 59.764781080617460
-86.932828701173932 110.492720057324163 52.598598133234340
-82.094163896042730 111.550470244440632 49.452472411793579
-77.146378177870631 112.739572167135123 44.145122820525806
-72.283282189163941 113.669816015659194 36.398200740010751
-67.389743726207996 114.783316316855505 32.566543899182697
-62.447221345838841 116.087487125099187 33.261549011678476
-57.623507151963651 117.265212450417437 31.069356441499973
-52.820656961174961 118.596700461959571 29.179986973807296
-48.101215171420129 119.931645485718406 32.549136887807983
-43.331483535968530 121.292781440879750 37.039952533570769
-38.565112599364348 123.017688889870527 40.729534642833030
-33.625467807283719 124.215154948218611 41.936416966714134
-28.821033244950392 125.603288761219432 42.544162894926302
-23.961238668843990 126.906581537167582 42.587706580436986
-19.174635672049451 128.056770835372191 42.200439316419740
-14.297467136054006 129.264416473082690 40.660933940001925
-9.487881787510414 130.459463153039081 36.728216192366553
-4.568286082165081 131.436153731924179 30.965938632077741
-114.965371998909973 103.736380681484334 54.043014986332274
-110.203265007263184 105.156784553857833 59.505831433703761
-105.286377416173494 106.650188043481677 62.806589772474261
-100.547910194489731 107.872587860071874 62.801924310898031
-95.632192856352759 109.158779046166671 62.202666677223547
-90.882470154274273 110.364542572273180 58.088403109749329
-85.929456892962179 111.367698302752245 51.246887716686004
-80.972247798940145 112.455351765880124 48.075873157498464
-76.071149935841277 113.584260260389755 42.772036988172118
-71.213316673648904 114.477218664917359 33.707815395939818
-66.316602849494899 115.785837490491417 31.935843857209207
-61.469178177383370 116.999335340716769 31.068694905242115
-56.590964147887036 118.118782344580239 28.457335319029593
-51.762854550062343 119.488466030054383 28.582261403857871
-47.065889398477694 121.016732325516045 32.864545923222678
-42.226679501397271 122.500548468168162 37.282173257836732
-37.476780608078279 123.781074667164759 39.971898523632262
-32.626091012086668 125.227164431297581 41.581975177752938
-27.802980685047245 126.545082673867569 41.893116967287973
-22.955459354522368 127.827767794767652 41.880860031816411
-18.049811257795938 129.106265780814851 40.865393572305251
-13.372752018798487 130.320603869531226 38.745682671146554
-8.443883985413969 131.408192755677135 34.182402125296960
-117.285655429093339 103.510152097709323 49.240205821314198
-112.412950214234584 105.235739151400992 56.792815129757344
-107.748961924938129 106.795651202795838 61.905501019727836
-102.890984531890496 108.042381413414944 63.147410696217676
-98.037371750022174 109.308765154869704 62.515412460323340
-93.147641566619825 110.556906727706689 59.928083723660862
-88.196564787023249 111.558740577341140 53.148370969980391
-83.490568360539712 112.720123157523872 49.508432442859160
-78.523041692400113 113.832613123106370 44.952348912939009
-73.531260129019586 114.834125660569413 38.359964052108332
-68.670505908307547 115.882028180943237 30.276979018884127
-63.936559953271257 117.157157905559245 30.732584771873661
-59.103217241363566 118.226057238867710 28.448598452723314
-53.549848604325213 119.638518455748553 25.064899232565438
-48.951525288734203 120.961584652515484 29.801173720107666
-44.105836449958851 122.528262452270297 34.428933045003610
-39.340323646698963 124.013179960968060 38.207043349106790
-34.499185819369366 125.412462421211330 40.093008108205993
-29.737103958653130 126.804093616274585 40.916961803575091
-24.818661593750939 127.992506109826138 40.777611477008456
-20.059851607655467 129.330685918800839 40.280558212126238
-15.141398208049992 130.602166075436742 39.021516265687197
-10.306189789282374 131.597566747658277 34.447570756358317
-117.492518302146166 103.695844302801987 37.744039883560106
-112.844706367924573 105.825765181082687 56.392885281632253
-108.119790461366833 107.315507308293121 61.752174204149746
-103.359247623473919 108.728815160766558 63.322855099440510
-98.384267823209598 109.868598480946559 62.268340835244700
-93.599446139939062 111.214257782868245 59.686970120655324
-88.690845738365141 112.209819212046824 52.965020134051329
-83.823420828609613 113.389205311455953 49.413784777791179
-78.966525600085362 114.433182692522166 45.041361956406980
-74.079070447500811 115.421240284902893 38.759041838032743
-69.126955796206232 116.414702724582227 28.929585746848989
-64.305692961842240 117.565847590107467 29.034667152809106
-59.458788259594911 118.766838276834548 26.069879027885154
-47.426096821714779 122.327217444425230 29.926506446172631
-42.588433547963106 123.675314655552242 34.847028587381558
-37.796464973273117 125.190869368847245 37.865626754491785
-33.074520216780734 126.593971310377668 39.506495199249429
-28.178247145806807 127.866415719811613 39.792882202193056
-23.402238927827387 129.184423236985594 39.253700421247686
-18.500631197119670 130.478863587746957 39.148869928129855
-13.647982237892919 131.560265245172332 37.134056750994418
-8.662966023702261 132.651501689880490 30.632707307197158
-114.784255153900943 106.061606314543226 53.670358932739809
-109.992638560562199 107.487236011876632 60.418829315867264
-105.217577785308961 108.907958049620319 63.109669633561921
-100.330660483291609 110.147810663892216 62.628785579677228
-95.513353956492409 111.387404071444223 60.671221275092236
-90.548758878567341 112.559687454669245 55.265175767407392
-85.670688600666153 113.569216983435410 50.170260192482353
-80.865490562405697 114.747583948828279 46.270505184475113
-76.041418735969813 115.756756684393210 41.286856679025632
-70.996148048525328 116.639916304664155 29.920798878608185
-66.072403412172761 117.911088873546177 26.730658883635869
-47.719980595086255 122.782930278921384 25.470100590044147
-42.898285351722315 124.305017765862900 32.697670203694074
-38.236314567034327 125.692355130102342 36.306097711819206
-33.434346706861824 127.023115702674787 38.249260246461461
-28.647255436967214 128.487753418921841 38.676987727091785
-23.876036453156967 129.733238272646929 38.363260997945176
-19.012076892889990 130.976631871726028 37.954093747246240
-14.054455766015337 132.199268494511784 35.554307858045107
-119.256599156929525 104.545420415055716 31.267007640718159
-114.609386380432170 106.712095327603748 53.741273605606096
-109.925373308657498 108.293083486699274 60.669302106779185
-105.016946342414670 109.776308664341030 63.055907906903258
-100.317200771012182 111.010329327102724 62.534908604828459
-95.452418260406318 112.211959789710946 59.912628607720571
-90.528014304624378 113.171657045867832 54.203224108503541
-85.542425255678111 114.409666447135564 49.652489316303758
-80.692860028940288 115.543915047195696 45.729605716740309
-75.835016958893902 116.590267626577472 40.234218407502972
-70.989420495524229 117.506155925159590 29.691189258470295
-66.030099886670371 118.507934239338681 25.215390527700769
-42.967365041677105 124.881319160302823 30.403469432490816
-38.218668740400147 126.498781661255464 34.992405359619966
-33.361225414416374 127.807462199366753 37.263731273925146
-28.551753224368120 129.248637824661557 37.520405376970459
-23.748989755229267 130.422715953808165 37.417081301557872
-18.932930754637166 131.702604625857418 36.948410716696742
-13.958099126903761 132.791784025734898 32.238961551941479
-117.790519208095816 105.883132809477871 37.102326904446471
-113.198306818551131 107.957559036075054 55.816179357342691
-108.419821378389969 109.441465448649453 61.578227394544314
-103.506994653434276 110.734388157888134 63.095413466936392
-98.738645914017610 112.076323287350604 61.390153844053543
-93.871917552003339 113.200864027926173 58.014871236026934
-88.975437400485589 114.231755921282641 50.834711391900370
-84.166591824195336 115.387413058353246 48.188732835924320
-79.201262077972302 116.549870582693828 43.963912000439350
-74.375485901490208 117.486608196012838 36.958930158639369
-69.421130830581461 118.334546141459271 23.857245409414467
-40.056354257189277 126.533205235536414 32.539840074650115
-35.244572785566305 128.051584991057325 35.700465139292973
-30.303825784068799 129.304009523234214 36.271300401248027
-25.555712508347455 130.690653365036667 36.091910367843511
-20.652238715399953 131.913497336788851 36.069420699127164
-15.937282169615585 133.098072743190528 32.349132209545502
-117.285868314128066 106.811400945373592 37.838418820088663
-112.672337682115568 108.921241426792989 57.579873379956140
-107.907359870577153 110.334790495358504 61.941759642897608
-103.037684186593623 111.632416994916852 62.802501622788050
-98.197129885561253 112.983647292330843 60.877427648323327
-93.339053937840902 114.079174126014706 56.434007811129980
-88.397915154626844 115.106562137103680 49.947239018876239
-83.485351902830232 116.312093962250430 47.315700388832518
-78.672567413583096 117.492667618862242 42.953048211725637
-73.742634600848234 118.379927375513361 34.298841755423773
-68.833711425896354 119.219338035606881 22.092085356044649
-34.114274557322908 129.104166959528555 34.285003612553368
-29.376811422216925 130.322857421539652 35.110555994316314
-24.444059584406300 131.608385046211652 35.050549906133199
-19.725315022203581 132.833965216571556 33.836190439383010
-118.654416828690415 106.950071063693997 30.754088202649378
-113.976308743115936 109.206092706387864 54.621545145275157
-109.187842280882705 110.683890789557992 60.726121569982674
-104.419180969083584 111.960601310249302 62.883997129726801
-99.585570063699436 113.285107408757042 61.335145287574711
-94.707248740263196 114.356236250204304 57.682810434562811
-89.795368182714668 115.445839122401935 50.567616661506626
-84.884018497242636 116.703231328635766 47.796541836078305
-80.092923963111076 117.721463382125251 43.682708963580438
-75.245121642849426 118.832819238682347 36.873551793654784
-31.707655704068500 130.364141009165280 32.654354119175053
-25.868793805234873 131.845950639650709 32.872648571271377
-21.076942144595062 133.166315830308577 31.414916909532344
-117.616625702668898 108.181365654737419 36.825029022368810
-112.992039006165612 110.300481660982314 56.854337056634783
-108.315908344193986 111.717108714070690 61.310053626852302
-103.411243885774184 113.022170466250913 62.383074103707507
-98.549695737148511 114.278256100928189 60.262920476628551
-93.682569557321912 115.389379849001116 55.554606585777350
-88.755430872094621 116.382681512848563 49.189616014961338
-83.982690663768153 117.605603872087400 46.521236920627160
-79.013761757709887 118.804566564396495 42.085496915905772
-74.218122989104486 119.708697554301025 33.246854646999310
-25.901652659524633 132.423916737536132 26.819868921056390
-20.510481829244220 133.947581444987520 28.894176003152111
-114.809808042764104 110.363544773111016 52.663609765505853
-110.051792589675728 111.865692231376372 59.891915588047183
-105.242942600769027 113.127176683553188 62.167429200861982
-100.420802006964095 114.526992222693991 61.077245962099298
-95.546341946901322 115.554694012035554 57.649569066522496
-90.714573582517431 116.665642318461593 50.116771901168697
-85.833495627049189 117.845497070150103 47.312060880859065
-80.943177134987650 118.980999063815290 43.177971255563541
-76.047968119355431 120.018886594379182 35.643545892913821
-27.215114766575219 132.885037291327137 26.865522743112461
-116.741459268584663 110.422829688107896 49.101120062213496
-111.859652246230368 112.084005727063044 57.896014655830506
-107.105895286594404 113.385381729988836 61.358560801354720
-102.352971586073650 114.697920308883738 61.556235540605385
-97.520513762530911 115.979787481861521 59.101479607421794
-92.482872340916202 116.945332078295820 51.699445216860809
-87.697345269215816 118.161209244648745 47.668008317009452
-82.817489941993969 119.308876242127511 44.340528602985728
-77.980360065329535 120.385251066247676 39.072844825089504
-116.691523509002735 111.163053007957728 48.857910241426040
-111.835522779490333 112.761388798105315 57.591187534928153
-107.156784650165832 114.198202204604669 61.188378047425921
-102.293252117525782 115.520773555012397 61.278711059380989
-97.361930201698797 116.824877610017708 58.520061309550826
-92.445181823120421 117.755644160854317 51.126689197179488
-87.660512148465898 118.914158421723059 47.249786559687330
-82.725829938153950 120.088617274413423 43.519234997931903
-77.893482625406222 121.065720954778342 37.583749251547104
-116.653643924292595 111.992642673706513 48.915488540171040
-111.888217635032206 113.525362436375232 57.383748889109810
-107.057545157154436 115.005820252646117 60.911371386120265
-102.225078279497168 116.195961875281711 60.851348762155681
-97.331323003334859 117.437171680852430 58.250691669433841
-92.556751628606690 118.603612549134709 50.553869968546181
-87.542068435328432 119.602631152894730 46.453004353466447
-82.649579647324231 120.821309599146417 42.967685468016661
-77.822431792460051 121.905601477059363 36.576218245755548
-116.495246403498641 112.769544619570013 49.245473310060028
-111.701511072288270 114.248294142056380 57.161043188825424
-107.056434940109142 115.682800362235355 60.573984439824933
-102.057645887012853 117.041980204622163 60.414257280345204
-97.326789590989733 118.201230858931041 57.803387001205145
-92.353496861469068 119.307922740903791 50.050578457687685
-87.531089892625914 120.424785472442551 45.774714507666424
-82.727683943204511 121.467298281578508 42.149299936354822
-77.818621638523126 122.541906100851961 34.833890600722157
-115.925095767548655 113.697783571033142 50.128791503169268
-111.274856222655160 115.194755956687999 57.520482314117757
-106.462701078736131 116.577082982635744 60.297717077851523
-101.649077968374797 117.845749471402456 59.696107734941357
-96.750479635452308 119.005212018896145 56.765368044122411
-91.831711776473327 120.002674751410041 48.377368089422589
-86.961458714019543 121.321099954577363 44.770403883586212
-82.119276354522214 122.400409600155328 41.074837344200382
-77.117827465957390 123.319366701319396 29.902044571116058
-114.967235136264264 114.794869166324105 52.443908574272470
-110.219268717921040 116.179645606361888 57.925864150391526
-105.460864287252022 117.605371040340003 59.917100651137915
-100.597925398774947 118.895521778954759 59.048970984679201
-95.709697768348803 119.975111668289301 55.163269855719008
-90.748055465652556 121.051299308659907 46.477325658039206
-85.982537417644608 122.169317013208143 43.345139720661585
-81.043906314620841 123.364663604375167 38.511409899805685
-118.182237847261263 113.724857064140693 30.989298724715649
-113.583421490358603 115.975399273053739 54.368551227464117
-108.703667651534232 117.336782016432835 58.578889333638863
-103.876825477059811 118.624161539714962 59.487324075556707
-99.042859308089987 119.932515307838756 57.831705327074722
-94.106897961875347 120.920761747237350 52.302159655005703
-89.280190759114504 122.113712961129593 44.766215721880734
-84.373104543842629 123.260780009204296 41.507347822230159
-79.525558238577020 124.194902815006259 33.069423981249969
-117.205493304244243 115.485146347911353 47.041472069645799
-112.440591171290421 117.001389274848805 55.226746936622433
-107.613546509893524 118.408991651088414 58.709203947094231
-102.818882992693005 119.780822734459093 58.897354602816293
-97.957966041245044 120.990268024433306 56.717338987695541
-93.056785833187064 122.004845205904360 50.221435899555068
-88.169994698167798 123.061838914550833 43.511676362598337
-83.339548113098559 124.258992021670466 39.799705936675267
-78.433334676804009 125.121292000260695 28.754445938155314
-115.722271781725709 116.704417312501192 50.427199649263059
-110.986628161736263 118.137696418970506 55.948534826731695
-106.180387826137533 119.585525355440581 58.667191710345108
-101.387686201966972 120.837154573330679 58.252792111372081
-96.471492061038589 122.029687014900802 54.895862845310809
-91.617464985157497 123.009064183105210 46.312468658647809
-86.734894177380482 124.218245525083901 42.436296231414680
-81.797801296359964 125.251703931000677 36.277964720699600
-119.061255014914991 115.876778640179282 30.014502908233599
-114.249760547496095 117.925862554537844 52.369638005828428
-109.510922269267098 119.423072607413005 56.839035033049079
-104.672029499149417 120.627372365472311 58.162858604249053
-99.819868191082662 121.926215486099281 56.990295239710285
-94.982006863053783 123.034778924455921 52.404260301548234
-90.013637644336825 124.130957599245463 44.399192785249873
-85.204778487504669 125.333602738985348 41.157945530975510
-80.350971076975071 126.201318974375226 31.181806282996135
-117.555602292325787 117.533302518357871 45.502214327538404
-112.757043580630182 119.121655170674671 53.508826214919544
-107.960691048507471 120.496732795640440 57.101827451515199
-103.124769261554917 121.848687079766620 57.692607256071717
-98.317947301530737 122.974290661941183 55.554514398449257
-93.438502967215314 124.141014717544195 49.474900087638289
-88.550203326869095 125.182412116110058 43.422946905499103
-83.626380217129736 126.524144351056748 38.956395047316349
-78.798896793846978 127.175412854855963 23.794276877083480
-116.027932198807179 118.757188497733466 49.154522290701983
-111.273955060083438 120.117786509393596 54.325269048963563
-106.469593644009450 121.587806001659104 57.212139361420761
-101.618677191304627 122.916791200858825 56.818785254307592
-96.678369601943587 124.115297514097207 54.140385403761059
-91.824824557005059 125.277361327468853 47.023383606595118
-87.044181549487718 126.227877664978365 41.685765525381797
-82.168970607549653 127.244649047434294 31.472808151557178
-119.339913799435450 118.144929268733634 37.187258896934374
-114.603541199791906 119.998250631331416 50.694648208595225
-109.807793805711412 121.397909448657643 54.940994441856581
-104.968839409554306 122.799173366268590 56.781362099867607
-100.062947954411499 124.000862788235267 55.824153444479542
-95.340101876884987 125.143409517563384 51.354943251533562
-90.428911390480692 126.197859285194539 45.956956651163139
-85.546935795828603 127.468025543396621 39.712147915814121
-80.529301926400066 128.343643536189290 28.179679281209189
-118.344963812066808 119.451950553297849 39.098059562008302
-113.482539346479768 121.028863835824566 51.420236753844414
-108.726803280779308 122.423162152492552 55.125780320225260
-103.909723510320703 123.715454066113466 56.392348506697907
-99.108434648030908 125.032106412334031 54.933883967814168
-94.303938811959199 126.195693683205590 49.853387328640871
-89.408768318491070 127.285734265162205 44.921783812671457
-84.414229531865459 128.393947067553995 38.422057224805911
-79.521539723963485 129.198242827186647 21.964307935421761
-116.867085419449609 120.674421290376671 46.124105544116794
-112.024021572905170 122.207290544255855 52.113013579082939
-107.134727771883831 123.610671995319052 55.293038690682245
-102.463842284681164 124.842803832764787 55.451724741281033
-97.543910216700482 126.051786660040747 53.301447908034319
-92.656570113002928 127.224588266046112 47.745076200757175
-87.926448944454222 128.378730984392860 42.480959027109542
-82.986023705863857 129.536335821960165 34.848114213628705
-120.063322213955303 120.276473712915305 36.380424680033940
-115.395076001882089 121.880651662904270 47.961932861508565
-110.603644022081355 123.211185546973155 52.931898257443862
-105.895346647528655 124.784162466765977 55.043864955892616
-101.030483638980741 125.928753632463867 54.542858564500413
-96.109876556845109 127.193215036316815 51.006643184825478
-91.214989942692910 128.414662603477012 46.769345891215792
-86.259208458894960 129.485812432556003 41.123644096764409
-81.357258124497321 130.352391512475634 26.807785696463178
-118.662471135801724 121.501035404385036 39.428000816026142
-113.781111969696440 123.133630546668485 49.238991313509899
-109.081353510525759 124.503899004944259 53.295280707882206
-104.265204375136392 125.839602929361718 54.412653266117402
-99.415969223353784 127.060548528358339 53.182734232763764
-94.629388582381168 128.236362001120455 48.918908342186192
-89.661213788629198 129.491275062160327 45.047321635646533
-84.791278592592818 130.556703765571285 38.815743700633917
-79.761516889941944 131.247822736854232 18.713300773353637
-117.675172060132425 122.647694056691776 42.301785639356318
-112.841547375677933 124.059017523727846 49.503753605470045
-108.022237378711139 125.536509507229596 52.995375487090350
-103.219660556772794 126.870047225584642 53.718456684160508
-98.358039103480706 128.002075916809304 52.216380075171735
-93.503888000676483 129.176160205602145 48.046623032940197
-88.657089156529196 130.496892511534725 42.712158275213902
-83.709736194302792 131.405477732099854 32.972668239310536
-78.865247439102944 132.273850665715372 17.631179651514017
-117.553090512404424 123.416469673903023 42.019537571966708
-112.758928287667061 124.828982946523240 48.858252843899926
-107.931549398824131 126.225029378044070 52.276798068731608
-103.042419027928091 127.555744626549469 53.240935325288049
-98.337281315622590 128.795361654170790 51.554306291398035
-93.450007919352913 129.959710677739082 47.698138160755690
-88.613751547653351 131.142724679410804 42.417047031460839
-83.640204021192346 132.346529529447167 32.355798950561237
-78.778247510928281 132.983305103607535 17.743177822241339
-118.940022791771170 123.656504042124439 38.626808633249198
-114.251476550326643 125.217555854879251 46.924208660119270
-109.409317024139511 126.534541239561946 51.159480438995018
-104.532638608952936 127.854034905718180 52.416174055622335
-99.688526947257969 129.146796333946241 51.567579587300955
-94.867372110894621 130.356707913895491 48.405837334259317
-90.053933797498729 131.645487226473591 45.253828567350816
-85.226323881283292 132.490570945257332 33.703011512206601
-80.084660377864637 133.422127048052118 19.673939663403999
-121.235752093156577 123.546667859429050 33.768803425423258
-116.549693758992944 125.244151579282217 43.064088270792496
-111.747644507384379 126.606900213528618 48.434276830647711
-106.997940984249240 128.021595195838131 51.360174257580887
-102.104048771631255 129.237224639976688 51.613798064159539
-97.188243121702470 130.521043387765047 49.711335157248058
-92.422234185533313 131.814799482856330 47.001170016958135
-87.582807641999096 132.790317861598538 40.592873349985290
-82.622897830684352 133.752833830453937 24.203179591692351
-77.670830481436212 134.835416371119237 17.118096193230993
-120.232503827155739 124.664392777179685 35.799818492109367
-115.561312099825074 126.198070605521437 43.919799012306207
-110.663311633429657 127.519578819891422 48.565530727189369
-105.867231228346753 129.031330691937029 50.838225641814489
-101.058038433069143 130.181917809422146 50.647673634523336
-96.143926577730099 131.446448256121556 48.504430596263084
-91.446432869603086 132.645896347968289 46.132722477223687
-86.431104316333062 133.899241299310972 37.750811916353435
-81.483793888899257 134.655234877213900 21.873722704407800
-76.604566032548419 135.901811792842892 16.551073354025664
-120.149004168217971 125.437216962214734 35.250230670915947
-115.358522398166883 126.943829304478626 43.150364447511492
-110.628524580203390 128.390186828358878 47.819861005928360
-105.719602331232011 129.614344220305497 49.929967407525282
-101.115473700801630 130.868239905818712 49.992707365667101
-96.125461305172124 132.240171156666122 48.002204323937328
-91.229167969773130 133.501222621832881 45.773579186736598
-86.388834919706596 134.513479096305986 37.278487798976542
-81.391557196543204 135.459113558467550 21.630514596165526
-76.593790436767449 136.610028654049387 16.805016600278368
-121.145330692526898 125.932612818202443 32.718891426969947
-116.221606311811541 127.454069577621766 40.951305701715000
-111.458467342401462 128.772071114627863 46.224115873623091
-106.663488281238784 130.115293593489298 48.757032006133656
-101.949748177330960 131.443059512876061 49.290223816508671
-97.029627983504810 132.780223704579470 47.936051453044811
-92.221584797564418 134.035016411590988 46.034900534713948
-87.328772093170357 135.106040129175767 38.791740348200008
-82.377973418331351 135.967658612405700 22.843311259814556
-77.541116135923005 137.109337183203706 17.863241017923876
-72.776794862092089 138.333950779049388 13.055399435029011
-118.628584739166371 127.393005515161462 36.495431813726654
-113.869276587075888 128.786487393067659 43.094263911671220
-109.078693871377581 130.259111177131047 46.987431939575018
-104.247694030945055 131.512055622184789 48.055522914596139
-99.432912820727054 132.809401715305540 48.127299959164667
-94.539004969383456 134.127260735991285 46.531392798931499
-89.718031225927731 135.374107475473551 42.918467278790750
-84.820666742899022 136.341910107431431 29.998226993886764
-79.884888558642814 137.332949362895647 19.942583986333005
-75.087624267701841 138.526780290887302 15.756909375901724
-70.093589675182102 139.744821256527445 10.594765825340270
-116.659236816542887 128.740875055097831 38.611944151579515
-111.837452851092223 130.038575384431937 44.016995094974007
-107.020645566145447 131.491437411788979 46.572088946591954
-102.248399360857036 132.715437803842377 47.356644240984892
-97.314259782573316 134.028737270427229 46.637760545729918
-92.544319684349858 135.281073246154733 45.196347398668074
-87.740240519522558 136.512524465253733 38.841049768125856
-82.760269693312040 137.435237331946809 22.511966053605185
-77.874192167960842 138.597299972473138 18.161160735182090
-73.022782097482377 139.759800602157185 13.885987756839278
-120.513899205234011 128.300564930441283 30.181218905558566
-115.691027226454139 129.765539671959402 38.869086985184069
-110.926873260344564 131.241106360398618 43.588577992941694
-106.093451596984636 132.532434000509909 45.858472355854992
-101.227249911811839 133.781925824274026 46.365440783256936
-96.391028934728240 135.118599013417708 45.860873952375442
-91.566051342728684 136.392865282895713 43.792708884053042
-86.608326155223722 137.414836561683671 36.568245272736661
-81.728959398226579 138.451702384674405 21.094175435906386
-76.882288022367845 139.694542603172494 17.607505772150233
-72.064504011077531 140.835933775161152 13.402533391076492
-119.875846340740594 129.141539000468896 29.295186649882844
-114.571823335783009 130.754572211104772 38.863213329428049
-109.882756702827407 132.135191354783302 43.102637666016101
-105.091911827235762 133.538404464995409 44.934590238376387
-100.206974725650397 134.754404760020350 45.217237054182114
-95.335396787911236 136.023008210804022 44.734873295589033
-90.493860669647688 137.292070513223024 42.267946532141629
-85.072609071579222 138.338123426400614 23.483313362930154
-80.236593085326120 139.519406667943173 20.061182593661588
-75.407043863491936 140.672528460998421 16.330960434975172
-70.497628142190052 141.986794165732391 12.420763123062137
-116.885842354798427 130.759836557445198 33.851779307194860
-112.264362888207017 132.170096060599576 39.916274574538974
-107.274842559026453 133.597261976418764 43.024761347380561
