ply
format ascii 1.0
element vertex 836
property double x
property double y
property double z
end_header
37.720830796519735 57.585019932061755 89.549857634094096
47.736776931059723 57.495721727595161 88.129915863977260
57.701718955714647 57.682028829135326 91.749122504097443
67.772403168209834 57.773735368362942 92.327950680584948
77.726024584744707 57.322289696492753 86.079371798652232
-18.901742551403796 54.342999938442937 48.890824050665216
-8.944348460202530 54.557627172328189 51.979586412974633
1.025784808151476 57.373117513897398 80.346711324833706
10.922216627536496 57.977709572308257 87.064996351967636
20.965455742497273 58.237823390541216 88.595292390453224
30.957102819734551 58.325557184692293 90.004875838991282
40.944503269374096 58.177466450087486 89.938585137659587
51.046390779463898 58.060918923823259 86.906534863277201
60.875178435729424 58.432563219096266 92.545107364627910
70.975417505017447 58.364185767898661 91.314722095903605
80.997931084162360 57.393552600838156 81.871970031848036
-15.645971225295044 55.085224063339389 50.604633920129473
-5.696011356870620 57.231493536270392 71.803897338219926
4.185493268155921 58.137800583709243 81.721926599949143
14.260143044105027 58.740251191024498 88.037502840288809
24.275981598659762 58.923846669305846 89.611675455259629
34.241489775214092 58.988209381862639 90.248366808097174
44.192940322549312 58.916878992136411 89.887711497896547
54.215558549271911 58.720531117374222 87.705416265811394
64.217140399590292 59.135395522214537 92.946388881886207
74.224525527195965 58.842115380561097 89.872866114089035
-23.033627488555677 55.167994697844421 43.473018384040884
-12.925690379346596 55.918795182204654 51.269434218759343
-3.008207511926273 58.511886900962324 76.939916458659269
6.976627115003827 59.277484753177923 85.786457620930534
16.997326048729430 59.623146790422851 88.490256437341017
27.066483482381333 59.667157896770533 90.486314104877522
37.093976972043933 59.605589733658334 90.121582374115704
46.968477735548113 59.581991974356662 89.235019293973934
57.024477864670907 59.704959138785213 90.371324048116307
66.984913634026583 59.829577106235398 92.815430770172824
76.952350036845843 59.525887913202148 87.477117458409481
-19.645359986156770 56.376004983179932 48.866319395295037
-9.715855240677694 56.666522374368071 52.185531546165208
0.193158597672828 59.492224458921825 81.049742920479218
10.213495468993907 60.061869331978976 88.213688080370744
20.295319171985319 60.279065459673454 88.617619918811556
30.239822511210257 60.356748218861632 90.434471464760691
40.202792239594338 60.255271475832025 90.288371357439871
50.254842043742208 60.203191694260816 87.831370542501773
60.288992317264707 60.389983719471473 91.756895436158771
70.204519875862417 60.379882890173306 92.007353001311017
80.236417653238263 59.738104580566791 83.789991725517581
-16.986900545777257 57.192714992832613 50.567159317685018
-6.935398430830531 57.459272697717076 52.990355154611585
3.017110405348202 60.230270763794771 82.246794688653495
12.943656186886244 61.019933092188914 88.985781487485411
23.031292661879284 60.881080334496666 89.634319304178021
33.036794908278317 60.991394409155667 90.471855855730752
42.954974278895158 61.023345070477781 90.476395078659948
52.895677613118693 60.709046011969704 86.774757758476483
62.998569972943848 61.233650672882447 92.683908376871543
73.033038723719613 61.073515926407062 90.659086607230606
82.968073296874863 59.929922708748450 78.092988991707941
-14.756027766165834 58.057427574993930 51.267398448750605
-4.659540544293288 60.161960572530162 73.685061851355840
5.261326035965456 61.244987815817943 85.934384672634422
15.229073687948471 61.703712923780245 89.255530433167991
25.258716404182163 61.631418454505372 89.767017092779710
35.265839329492294 61.710808281817570 90.845607491060022
45.261771110684968 61.691434463429907 90.399953926911408
55.279620954811477 61.325621353600823 86.519655195132671
65.278221117607742 61.853701407064335 92.798414045364439
75.270585275559995 61.495507736146976 89.391755676009723
-22.064616489814618 58.276407958373042 46.185085062572057
-11.953437594995380 58.848991882393335 52.338940519702938
-1.917079863584720 61.376584137866871 80.070040482019877
7.940852438890659 62.293325151757998 87.993431852345466
18.037522598838141 62.162936293151169 89.010084632718431
28.045718735527153 62.262338316290581 90.289151886296551
37.922143366017814 62.270757442516761 90.402279730556657
48.067226956465554 62.252041822129677 89.757055467006509
57.960387032720782 62.293395813271182 89.270590214742384
67.884219650455705 62.518687767094889 92.502322916582756
77.958486055174504 62.078011079917331 86.902382034369893
-18.842392424899877 59.436099063894602 50.177207125532505
-8.781074923556933 59.556583506547547 52.965510566386136
1.295759848325585 62.193012729761627 82.619920347423658
11.189524533257600 62.914858574839769 89.098929270765666
21.364146948286443 62.944877480114151 90.009766298981432
31.191497021426290 62.882316889119565 90.155881565665084
41.224365893629397 63.031722654612459 90.648340526616138
51.204743232301531 62.849809870076363 88.240332559448447
61.266528105245499 62.996826144939092 91.050195643572465
71.295685712333423 63.050458386321822 91.685723062419285
81.255543106717127 62.388794725374630 82.537961821708365
-16.063819390187227 60.162257839711614 51.885682111256308
-6.036955562412696 62.229004844666143 74.252476173643416
4.022393279185017 63.295905477637952 85.298592663242843
13.974732434132367 63.617533395048710 89.793460044794102
23.927798555473316 63.669270752768433 90.233181266333261
33.976893305273926 63.683276684784538 90.572194372106182
43.981643801447845 63.747222112032532 90.956637648953603
53.857619614231233 63.348777959201186 86.633371043457316
63.898108778452176 63.780848295315337 91.780557595661733
74.028079398504474 63.678141903993421 90.084830574616618
-23.285137533913215 60.102238795582814 43.829920134706356
-13.323708446325609 60.862296252311950 52.462655656798759
-3.144575089235201 63.379492568728608 78.657114784484364
6.827259695068112 64.149131309963067 87.094392958816456
16.756758260534195 64.282949633279429 89.724975242241015
26.684647966772353 64.341628853633779 90.301726676706920
36.740326362021143 64.337275278785526 90.860472708032404
46.820625993495582 64.365056464787244 90.327121165075596
56.745387524347052 63.991964684872983 85.986504714089676
66.799698317328023 64.419319471320506 92.040242350928651
76.714791161839429 64.180004547169958 88.133841875398701
-20.553724041511284 61.337506668315463 49.492557960538271
-10.600610160572565 61.691251229957004 53.122887367688094
-0.496885309963993 64.200778002361574 81.387371020661249
9.633031429624365 64.987772093202693 88.246201428999697
19.573597144981719 65.074257778507786 90.691960956585746
29.502455541286135 64.917460080454546 90.033078728591406
39.434863904744553 65.012440528992840 90.654460851317452
49.369489770536326 65.015994681908964 89.465736229406843
59.401960497467250 64.837345492241695 88.079569860354212
69.524949170389391 65.105936931359196 91.621108826998423
79.562186310194690 64.667135635173437 85.084141415729306
-17.778926419194985 62.198582895964044 51.785796749191604
-7.745400421545503 64.019498938105286 70.793080354967799
2.176847121096929 65.158140600961474 83.806280779250415
12.227554053857327 65.604885480805606 89.110551531103226
22.245744665485507 65.785386450247515 90.522520478328474
32.255884643765839 65.741854492018234 90.034782353012460
42.305054347508410 65.739417700968659 90.793416379218741
52.199931378110676 65.537191998819054 88.247018881768852
62.271132809178347 65.698966197089902 89.934774389891331
72.277931505314442 65.690364745436540 90.520064868057261
82.265457524939578 64.754288940340544 79.076792754623526
-15.443617365440895 63.056880720402141 52.807902216104452
-5.541776357654363 65.010747002035600 75.087911891020823
4.596794320339749 65.910957343208963 85.563535220332113
14.502891975181258 66.354352839397890 89.767528673720165
24.476965038174662 66.413762988833597 90.965174105643143
34.505891652896324 66.403738560438811 90.503258957873854
44.457194557564065 66.387284960038855 90.883010132414441
54.491980513357660 66.106197973106077 86.593353311265957
64.449888754432592 66.390821474767250 90.519145548019054
74.398494327688979 66.319209374486533 89.259712782947446
-23.299300320093185 62.960369026557217 43.753072232194867
-13.320763225004210 63.816354510383604 53.064041381654697
-3.202490008005356 65.951657247014850 77.655481145367432
6.717149026521875 66.646089317956879 86.396876260663149
16.755832526707700 66.977353732785616 90.550103632324081
26.714696640535479 67.075772019419958 91.083180096922788
36.797904472772721 66.982063099245224 90.470625100810039
46.726231700310692 67.046028493754505 90.371356715926339
56.801339089445442 66.739457123663513 85.703098894621746
66.764512410263066 67.006323968797403 90.734150213394656
76.752224103275509 66.805303224319672 87.316439625405991
-21.973673810211508 63.957648342078748 48.172214400452447
-12.002782898766958 64.528709429209826 53.274299466004223
-2.003027313541121 66.737528600949801 79.368243409966453
8.046672305065824 67.523509462152276 87.053933612148796
17.976541073284757 67.658973935892746 90.974604495056695
27.895460060073578 67.765701471219558 91.214234435848525
38.022232602161601 67.897110265444482 90.455711232280635
48.058207654867637 67.711778515644383 89.938232077550310
57.931522218175239 67.342419889677615 85.377419521054378
68.006462892360801 67.710487611976589 90.559532414112056
77.865721575275259 67.390795847867224 86.314948759447290
-22.837146451012185 64.531818924768928 45.875483110368322
-12.789228522314994 65.218266458643953 53.249553749415881
-2.742933493333042 67.293594365743118 78.530168655539981
7.257535896624931 68.122901010748905 86.609483972665188
17.232659454257320 68.301588653728899 90.721217148788156
27.323873202835333 68.403669572245136 91.303848211131765
37.216551919684029 68.353517590224911 90.230077723035066
47.312207819490133 68.288093763336093 90.200684670112850
57.240489790060700 68.025579883051378 85.652100104015460
67.230377007739122 68.329630901035699 89.944104151274416
77.204345443241692 68.039275517724178 86.291472336183489
-24.985768352480328 64.725162119518117 38.688459469768461
-15.080577603528040 65.927245005076017 53.068811680763922
-4.971066925239708 67.801067499386633 76.158313669386175
4.931063107278693 68.758063619090493 85.895082566751043
14.941591536645930 69.067643645105690 90.397355363565339
25.016301201401227 69.210026715138255 91.370650167069371
35.114134522026873 69.121332070797962 90.195030178313971
44.920882897875103 69.057033165461490 90.521369402615647
54.884279913531216 68.757469538083370 86.896021447285108
64.953356361530211 68.856073937044528 88.294425917162982
75.012270283007510 68.930653574979502 87.767463864832138
-27.704572748815682 64.974675466948554 36.163716414091752
-17.551602684208500 66.503497420384818 52.515158835764673
-7.723575398458963 68.467665504036745 73.807189006206741
2.193597790512087 69.366351180851922 84.655344462643797
12.244158140643304 69.651768465915609 89.689446793628008
22.323518265608211 69.749985575033151 91.383357390458229
32.153610848083453 69.698384257956178 90.726096916394255
42.296335758792878 69.820907011597313 91.133838144661155
52.222575274092108 69.655138715989878 88.307082929048150
62.213026427638020 69.087700454438121 83.348330005637891
72.280565295494583 69.648839703059096 88.466059335949907
-31.448311649623300 65.234535856381882 29.451875164066468
-21.431261554820914 66.884301972665114 49.221942618423313
-11.474362230842372 67.425977423255944 53.944827020572383
-1.535286739648554 69.720195510829853 81.379945582085909
8.436433676927775 70.254935232660387 87.496078265945130
18.531913190515997 70.485209449431181 91.025405969470825
28.459417584022724 70.586839105903053 92.122738178070350
38.506610030439866 70.409169924855561 90.389744582866868
48.540929433620008 70.323922718047257 89.763200259361867
58.419746946787448 70.130243502202035 85.062362689060535
68.547779184928388 70.257777855862329 88.191430498373279
78.463400730800046 69.951488351869827 83.085597267303967
-25.698297753909465 66.821397783563015 40.305347270918482
-15.779149426846926 68.079401297303349 53.385440195643639
-5.777348747659076 69.856400894447162 76.408269530540636
4.223345227693076 70.738334465048212 86.221484126987903
14.271905914309981 71.030793058383964 90.445071991445559
24.231793734408015 71.202850983251253 91.657700839053859
34.254549032233299 71.079250932984650 90.737814954380298
44.252995683854280 71.143333074812674 91.030071750972397
54.222641354199240 70.782682039828245 87.656097311509498
64.335948978590849 70.392841012475373 81.700470067413931
74.304450832236697 70.809018774395227 86.110033558325313
-30.555631687170955 67.330647403060098 37.864667815612513
-20.579197077579419 68.491365065712571 50.521129411048108
-10.512340865972575 68.748955529768409 54.550609391321714
-0.541102360726941 71.284940838317439 84.118496955662394
9.445429617471216 71.668498955124477 88.723389117220194
19.510463066808949 71.741475727399191 91.457784084078256
29.495095505098860 71.935339541360690 92.104656068836931
39.588777559183512 71.803185668586252 90.962806517568325
49.455463616531411 71.699165918201601 89.537010375073038
59.407796443733169 71.411995744331961 84.562586284098771
69.390627226458733 71.430961494646183 86.407088967248583
79.444490503921230 70.763193367934448 78.553800697030240
-25.701656710188143 68.508165310265426 42.998568225173756
-15.810629716317111 69.323598595894580 53.605552454163913
-5.808341542699337 71.303135000995226 76.339666258005067
4.223485573505838 72.274096779964140 86.833481867823238
14.266248015185697 72.337173421805886 90.652287599167821
24.340339459960877 72.523335531410652 92.430839080995653
34.226829425603803 72.529355684923971 91.206179426585592
44.303881802412143 72.423340511925886 91.346969839294786
54.268033576247113 72.144771706016698 87.652566562678473
64.244118212660524 71.741945372905505 81.158735104938785
74.308166233262895 71.956180549610878 84.372221861057326
-30.531702288956804 68.884853933862701 39.258064065567233
-20.523883263987436 69.839198766546062 50.581139804918081
-10.505467538794941 70.073463590480031 54.738616933854772
-0.451152202999739 72.533700190917415 84.633508517685542
9.412006790692855 72.944508295556403 88.853264566968960
19.485703446441246 73.317214614036786 91.731159390724542
29.404628876490019 73.218281657390634 92.422384249979331
39.504473586095550 73.137920618264985 91.477982144775424
49.436643524180091 73.045812282145221 89.521641076442251
59.469402577523731 72.627355755877772 84.565403032933773
69.504803504187237 72.606205485925429 84.263244531698433
-34.863028364006013 69.123888457566807 33.901094752376537
-24.725208050133844 70.209497531142347 46.318182925902413
-14.688142154944781 70.825393046598450 54.157657306645717
-4.809525804836083 72.807822056683662 78.749437818032973
5.257383196733683 73.558348795652023 87.378871344632202
15.191512740068072 73.721840816703633 90.694099119196053
25.273740018935541 73.879189490421098 92.862394931419132
35.318154323700000 73.717740055630955 91.788395741096394
45.208274227337910 73.791335062837987 91.380026544974399
55.195474727669399 73.509186208048419 87.289049568951171
65.285935805794125 72.887074624480846 80.120640607891815
75.239121841121161 71.146890986075704 58.365824595448991
-28.916816249961972 70.573842178640660 41.534751402437109
-19.051522341143251 71.348355852003351 51.766732543328828
-8.914131684770762 73.116939622239443 74.297556516216247
0.954592366184612 74.065352802580591 85.975557490310081
11.027998367235343 74.426837877266308 89.904132449213378
21.030945797554114 74.589888312959800 92.497378868877732
30.937295582783594 74.553176235745426 92.701051046326754
40.993072105233580 74.577260010309644 91.937434571548764
50.973985775982911 74.269138555276299 89.045986165841256
61.004756413295397 73.916505374884750 83.682456560896966
70.964669111249947 73.018354688524795 72.061676618019845
-34.263705654612572 70.887358859461415 37.716611527585727
-24.163108597146987 71.777996947616629 48.315382464344800
-14.245531089699796 72.202489927382146 54.312409049824076
-4.340957499895362 74.171266442865189 79.846485404169115
5.688655560332423 74.944333527881241 87.616348758166637
15.772414698303548 75.090021561361183 90.913615260628731
25.667757811814411 75.219377033176585 92.866913031445506
35.741177134983040 75.177401194484915 92.144832202011784
45.739183324840845 75.100593846001289 91.046035155128379
55.802532122561338 74.921981417024668 86.981861429232595
65.691995055477264 74.276291667228065 79.604093365413462
75.696588202342511 72.534463161335978 57.598197619208236
-30.047182382206330 71.916068067380436 42.148427762145900
-20.011060888797537 72.852978411969005 51.310430761559452
-10.065483740493644 74.447519316291078 71.919397924590939
-0.108215185382668 75.424516800385021 84.941653945556624
9.993161375370450 75.740892418533605 89.152324456688689
20.017669581915154 75.878070614047147 92.499691869768668
30.005277882780454 76.001740332793190 93.071250804883533
40.088361610022446 76.002748545037988 92.456745664461423
50.042677844071939 75.675052826106523 89.738308308511165
60.043186472283445 75.309218644960481 84.619038152493331
69.976162519344825 74.439990995642702 73.443647370535388
-36.717384626750011 72.019377269639293 35.500255758856305
-26.772576059345617 72.941907863377978 46.026941858184522
-16.714820656442274 73.568252651440361 53.326417958103029
-6.738748405871942 75.456486249937711 77.795205338614096
3.256699704788900 76.105091662727972 87.232867811177243
13.296498918764021 76.501314460597769 90.427540079280675
23.211828229105393 76.631340818973314 93.087944847438166
33.350411372074852 76.489340576539377 92.571067972626679
43.267547549913488 76.463667394552772 91.680438238986241
53.299298642449251 76.309159739221940 88.384982825967441
63.290275950981801 75.799326034857458 82.104224254606066
73.190471347067884 74.608075988978840 66.399731767232339
-33.575368130561920 73.168410501937387 41.030968921358792
-23.366012291863509 73.848150634305256 49.560418767570049
-13.515848060659863 74.367050431246426 54.580925671107295
-3.481525801153544 76.431711916055818 81.385801140809136
6.431719226286324 76.906795641390971 87.749672810774044
16.448380849447414 77.124690808952693 91.258349607747874
26.457217716276034 77.237089439353539 93.068085481999702
36.496671885737371 77.176060551824236 92.514139576361075
46.535377625284646 77.064717975697661 91.060485798355657
56.486447974501893 76.834385961404806 86.631027764709799
66.482807072301256 76.316664042910588 78.258424777693961
-41.695061897805253 72.754554375826800 27.214675385030255
-31.622777795221840 74.066322141454364 42.798908793028239
-21.733708654808172 74.841042100815201 51.026624675429645
-11.668697289951258 76.265867990192447 70.451498014996986
-1.748022579320086 77.144290851038889 82.677556342624086
8.353045403415029 77.540925198381515 87.731305548549059
18.331567732061668 77.968715279584686 92.075009931921073
28.241355970460781 78.021376259835833 93.301776463552258
38.228424742673155 77.795401828071661 92.587064886760075
48.279508648815089 77.753325517349097 90.549840144835500
58.274212767183741 77.460217175344269 85.829993945601885
68.236020391342876 76.752369324615188 75.921119914083221
-40.003087201574509 73.905403095933409 32.713406250356414
-29.929618542798043 74.972624203559889 45.281432572665445
-20.020990425804090 75.571374173308214 52.008460741414808
-9.922570407520430 77.302784445438803 74.835138738032427
0.013799869658046 78.114781144402215 84.198680824208196
10.011611309630061 78.346125458224691 88.368710656621090
20.108409910149796 78.542329389911430 92.430736830219089
29.920375263620866 78.682038516468253 93.400749116188990
40.089071902406033 78.542682602901905 92.711813959552003
49.937374992391391 78.480961685359432 89.955968973902642
60.074527553723648 78.161810388326089 84.749697317887836
69.849118321900477 77.228639637977182 73.209396400575329
-38.768091028851053 74.949665782558711 35.829084671942226
-28.605052216163614 75.797816684974663 46.796263082193519
-18.784809675265798 76.302872642306326 52.532881670639235
-8.721700188346789 78.176734939789483 76.743127400871160
1.286059289096641 78.753626222219822 85.263865101767763
11.275251496918823 78.981982858627603 88.975329022534680
21.341710268143970 79.312388485605837 92.794793011722589
31.252875101174808 79.388749412216967 93.238818664476483
41.194237249106237 79.362988801946031 92.424487212316791
51.250399235844526 79.013841296868392 89.441553532439542
61.334407788141000 78.700502080729365 83.847401851490929
71.260477055559463 77.748317822780521 71.261215566690908
-37.525568888682805 75.757603465907394 38.706450914615438
-27.441200458310291 76.661040893215912 47.958751363305076
-17.512690896101141 77.044221920389603 53.259547327718046
-7.402657633606633 78.795939622747412 77.766388181691582
2.376313026544409 79.509228636737731 85.497031102148426
12.489617251816036 79.787310620061660 89.601337621895922
22.408445514142212 79.927138746861687 92.775386252047184
32.521295964094357 79.991645025821811 92.860255783146471
42.456978961778354 79.918753696977760 92.352102807376141
52.440582043310400 79.747599707499660 88.954111720340535
62.558145411722755 79.254544314851728 82.826707502053168
72.512885386079304 78.197166989554404 69.257076247778329
-36.610624209988949 76.759750575888901 40.093832613141664
-26.894160414131356 77.355627280614243 48.430364538319331
-16.785698685902382 77.805457969449378 53.533430760357660
-6.783914352315735 79.551381155725622 78.224366062832885
3.210786802501325 79.993317652804151 85.927623797183500
13.284606172637286 80.424735846558391 89.805149416103561
23.328036035805351 80.602564256304277 92.695225755336139
33.177674146147901 80.546240676254030 92.757772543294706
43.191813376805101 80.621487396154933 91.955244946927749
53.334405018931847 80.386559646779034 88.688538340584913
63.274431557218129 79.929924066829770 82.119011601116298
73.263321950291072 78.719314285641261 67.084178976545473
-36.980306101468578 77.323795445154573 39.958623711905304
-27.055870808133129 78.052828814522556 48.517018564058972
-17.029762444366934 78.491816113653044 53.649840598319827
-7.035238836044337 80.360284195623095 78.103377481439352
3.091271690527629 80.850701378083357 85.618759519828046
12.971274644491027 81.088471828813056 89.868245573783625
23.089286851442687 81.286402778375020 92.491502599461796
33.014298761246984 81.329505604535640 92.817534277003276
42.930026403318095 81.174237669684800 92.091235229185259
53.032103641952389 81.127690981922782 88.822020800241702
63.054981231389284 80.523202102613638 82.370121894159226
73.028809067159244 79.435209177536123 67.755223608052745
-37.712350020845484 78.063779213996000 39.306632189545830
-27.752736257232939 78.776215199704097 48.352994912886089
-17.742433785502485 79.072731186300871 53.278118947954155
-7.756073499341067 80.923986712345183 77.750142844537990
2.289976447053812 81.453978041777873 85.102550371676301
12.369179183005597 81.678230975243522 89.863383470853748
22.221917359515164 81.882310932503529 92.097209108010034
32.290743877221971 81.981861264923964 92.848318294924539
42.229402853119126 81.929911865671627 92.095981286494862
52.234642810964580 81.693810457979495 89.250318401471375
62.239087718429850 81.250469612597811 82.846743707168770
72.250410588598541 80.305830820138851 69.584287792208400
-38.505246798231880 78.706755320761900 39.114605178282083
-28.555676297069716 79.516961440063781 47.968398980066681
-18.582661251233162 79.843713823649978 53.415821207614805
-8.606090509135770 81.549708998556099 77.587192915206202
1.433997282967491 82.155999589268987 84.340929992526014
11.493641982392523 82.371670756449490 89.760640942040439
21.521259690396008 82.498093181474303 91.500112698942047
31.473498657979160 82.683343891187036 92.826122558042599
41.603008982869198 82.708455186532959 92.245333455042925
51.470756596088478 82.473166742497924 89.553258823008520
61.601838300610211 81.956406429814848 83.447562059153938
71.506352416426608 81.090768145424363 70.880459576550791
-40.263940717414798 79.297147945139159 38.047231214950152
-30.288193775039577 79.980847397058426 46.816717264940173
-20.219869933491292 80.351097088439431 51.977747195063060
-10.261277511664790 82.097311689861186 76.898463828021079
-0.361509724371427 82.572399416849038 82.811416665929343
9.691840930880270 83.098961535305534 89.582993932157521
19.744426512330978 83.259115111607002 90.689144150439716
29.723796032989014 83.303412433285089 92.945480217893788
39.682237299916949 83.271253814111674 92.407844155089009
49.838682921012428 83.155988150192599 90.181374219307671
59.718258094016427 82.777404672695184 85.094915721577536
69.727651594061768 81.994749932826991 73.375551400939017
-42.473218617987335 79.769085555418059 34.291407827931323
-32.534759311597341 80.722909229669810 46.224179464374643
-22.431433536454708 80.920986663480434 49.728942591675214
-12.530748792097356 82.729937911592728 73.243755004040665
-2.562158356111782 83.246519351556117 82.070189129581124
7.467362888067618 83.694211116438822 88.647291886037507
17.555117555975116 83.842903925003270 90.691807785322226
27.551465245558859 84.035083831309166 92.776712615956967
37.347713572450786 83.956137815722499 91.764054628666727
47.521727313200003 83.798510374761662 90.585614342556454
57.425185095468500 83.657837916019503 86.549193199189688
67.469585370037379 82.852363576598691 76.346983885328740
-45.276383483890847 80.011968950272461 28.516633021841010
-35.318630904571201 81.022525474512506 43.504284496825946
-25.175450442753316 81.600908872387365 49.125365925861850
-15.265290431472238 82.091234795303947 55.014195239159655
-5.237616306894803 83.786798138192992 79.942536030013883
4.748330386292895 84.243665874537982 86.952574147348130
14.768988402937710 84.503951681917940 90.742655903768210
24.882757583798469 84.588295979247818 91.629615969577046
34.740398895943493 84.671624529555530 92.461197238332431
44.800794945923691 84.527705700934590 91.564036015931151
54.701303336971399 84.362854029022600 87.669515465363858
64.768436787105429 83.826681936605198 79.721035151027579
74.795285832486172 82.462655571702115 62.238977899927612
-40.058522443494134 81.463767435850684 39.805720686849952
-29.931504064413154 82.028537402767100 47.264658803637147
-19.917467246080513 82.699601953371698 53.207997916567692
-9.941529266541044 84.214393390480865 76.732962904806740
-0.000229112052791 84.582971650162335 83.054591445980876
9.955088221318956 85.151063554111516 89.645509772791783
19.951895952818941 85.183631845570190 90.618947418513784
30.016188267323393 85.351216937908475 92.544930069971443
39.947639796623797 85.357685991988845 92.676482613002861
49.867811940184140 85.095532145598483 89.837011143224331
60.014487721431863 84.734419065079990 84.512056342417878
70.036586157823834 83.965978146788856 72.980232633834817
-44.309302107938059 81.787628495969884 32.756368531503220
-34.101904561983680 82.809753011271866 45.423997016116886
-24.206643680696512 83.006280338146922 49.909231788417358
-14.296326250048004 83.438948441391901 55.046771369027496
-4.254212501157781 85.164152718502109 80.328603133873685
5.633633765289830 85.580272985565330 87.287013009185230
15.865401737884143 85.794478181867390 90.874757453859701
25.878988904448832 85.817144283430849 91.522446723606706
35.645652048478127 85.877947513506413 92.049834673694548
45.655712608430079 85.916399436204856 91.290957510088788
55.805897568844962 85.727079594774267 87.099298469323003
65.779031945503391 84.970900095228117 78.328067238618573
75.702280888750096 83.776120070345627 59.527408136821840
-39.419314339079818 83.080837237042971 40.497148955443990
-29.477819483479653 83.663700058205350 48.544362022780405
-19.522930534899867 84.069997992466497 53.884738807584590
-9.569069558438555 85.565358046167177 76.548898065826435
0.524839309853514 86.078905060763503 83.611436722110042
10.488230804401093 86.508775483931061 89.534492347456109
20.482545481477693 86.504328751365094 90.697237015469895
30.535294392219061 86.665160102725736 92.808024397127895
40.494772804586148 86.644775469976722 93.001766428600590
50.575270438672412 86.532040329335032 89.515696197183104
60.523214970049807 86.102273311145396 84.119939135614970
70.450788725421631 85.443889250519902 72.108048266739956
-45.269912269852824 83.088512986408958 31.677747395489629
-35.305021154641288 83.996590170812880 43.496363189685589
-25.191980814762275 84.557833168764347 50.544257863784281
-15.253627502626282 84.854596812130225 55.222942289547589
-5.206848417089317 86.447609309645898 79.468329429270341
4.617942055431410 87.022834307599680 86.017727889077364
14.705251409166072 87.208269296587858 90.600782739639627
24.782898137433495 87.237508132973502 90.557047692508689
34.751511554051106 87.398371664801360 92.201947624077576
44.769533347577259 87.197860778664662 91.847338816139853
54.713874613029333 86.931665707678405 87.495029700965333
64.688943102098790 86.495962074303904 79.521071623843341
74.718877718063496 85.350467357937831 63.182998440495005
-40.998892429338774 84.528658177712458 39.756036321671644
-30.949035835015167 84.935081596176346 48.246272579091404
-21.083996939699173 85.227910415604939 50.252965959651043
-10.998229520933057 86.820743593484991 74.108799014101336
-0.976565493802893 87.341960747418639 82.457109268273172
8.993309007808600 87.674428592762354 88.369142548343888
18.863306655776700 87.965176678991014 90.901332814601744
29.020322803047893 87.921963752719364 92.347408527483097
39.046542161288869 88.055039317881864 92.560620883683796
49.057151704605481 87.795963507410733 90.132603463823202
59.030790694143256 87.477031183485167 84.857900582969165
69.061680929755028 86.757517091208996 74.001064285949795
-47.230605021557913 84.049373588551603 26.948555796173036
-37.321404997383823 85.331603516550160 42.094315772994740
-27.247648262131900 85.968177762009802 49.900475433450168
-17.198388842817479 86.158934165634250 54.744823423380403
-7.231577944689997 87.773767617203546 77.689786805756412
2.709404014326501 88.140229367565510 84.597286497967914
12.729418252151220 88.439921733832747 89.540655299622230
22.800649405002364 88.503063420743786 90.707401408407591
32.793625861723847 88.717778754209917 92.439105694275426
42.714892785176453 88.588526790029107 92.260912914438251
52.730106972982917 88.493494810506206 88.370409730568724
62.750822761527672 87.894092164548368 81.596247711551882
72.785873492356203 86.992728284861784 67.895629021851434
-43.508202319157689 85.542125354337657 36.742525315472918
-33.541523348055833 86.347588881725301 45.980827512542653
-23.512574805522075 86.638530726218477 50.500064369504223
-13.463659992675503 87.052908963168022 57.777593904918859
-3.460310300444786 88.472980237213491 80.155723455325202
6.591734181399561 88.910847882339297 86.555479617307299
16.641862652381327 89.180241113993077 90.486185841998960
26.436146914892571 89.248805457768000 90.544708365931243
36.601925418829204 89.347761813683675 91.892105417607240
46.559957127740567 89.260068204787189 91.115806440574090
56.535395330575994 88.898967881860699 86.312324384096542
66.514296326854193 88.240415904797331 76.982980827796126
76.491585369604039 87.106341307315091 57.488392233584669
-39.242814970395727 86.651019516801185 41.677147480804976
-29.193517323247505 87.216271785315499 49.210486748651824
-19.271602561320886 87.548972855506648 54.026492596984419
-9.282552510247033 88.920821231211718 75.403797745912698
0.704555700519224 89.430776627433787 83.514604778143379
10.699864856942895 89.658889493937778 88.231661946186392
20.755101023906082 89.906352045912868 90.694465648955131
30.702159595428693 90.015643971531574 92.325645617560781
40.706827188807537 89.995400454999810 92.472633074065286
50.689168102756874 89.819135354803279 89.217866949129530
60.549596011333790 89.357065314523098 83.319818054991543
70.837282915207552 88.630480418498067 71.226933766167434
-44.997417471838205 86.631165711609214 33.362161874452681
-35.051147394951201 87.530777676029615 44.018873452423747
-25.017017229693071 88.103519004520834 50.341965576613013
-14.976159760409994 88.430035963085416 57.251255089991581
-5.102412848515560 89.814035425810317 79.163640883797143
5.003380315222629 90.059345124832845 85.367173084088208
15.040715049257495 90.473089530422655 89.340397225355517
25.061231860635580 90.445734270850849 89.367460771822010
34.938537960652070 90.689979457268009 92.095559719564235
44.935629755202719 90.582698288343352 91.608411786199341
54.999016836332792 90.385351276136262 86.957510205962791
65.038147282513577 89.761359648505433 78.663979581826325
75.066601572348645 88.853642777317177 63.077278208951654
-41.246716733909196 87.891455643196949 40.455986705910867
-31.243690717996188 88.483381738725939 47.730084802962310
-21.217476579073761 88.683094676712727 51.269808871926713
-11.297768311127285 89.936605107289253 70.227230013425583
-1.286277789862542 90.736358642483268 81.919562461488781
8.732881684921447 91.124510381483972 86.938566022044583
18.672534645894519 91.174740481359251 89.968012751417504
28.754414629878983 91.313310328146528 91.453501124958549
38.758209503161332 91.260474872729418 92.025977121977903
48.712565386937520 91.170105179901768 90.000715841135872
58.787432273298698 90.863012881734178 84.541200677807154
68.720680433231735 90.159442924664589 73.811322187542018
-47.003413205088421 87.871010506440470 30.349964700472920
-37.020527520451147 88.798417312976895 43.326589182966288
-26.940711359015591 89.387333865697727 49.607873678058048
-17.061888915977249 89.731453326317549 55.059166783718247
-7.016147347242351 91.080773262538841 76.931817627718289
2.992111046590534 91.574587245620293 84.008752360836198
12.886141136194329 91.776485096433817 87.628138690308433
23.008685797865471 91.871772241137762 89.844525211453373
33.120098677189070 92.059432150446057 91.881205437722556
42.996893724182613 91.938116461381384 91.627073629620156
53.078232087739870 91.767488857385217 87.719869761523256
63.067238329754872 91.342641712227575 80.773935655642703
73.046900231092565 90.496110371979384 66.800901809930792
-42.695212820880243 89.206869319777439 38.564851851932758
-32.735737776576563 89.733010911824039 46.146898220392345
-22.701181667454826 90.139123914975286 50.424560128097369
-12.842442607928792 90.644064713422594 58.414222031576237
-2.720025403676049 91.972622160588074 80.098986275205689
7.246305600296973 92.342278760652789 86.033363820260092
17.268172447062785 92.409067542846955 88.972426020818546
27.262068621892983 92.545849672528874 90.337894948317867
37.173239385622843 92.637099164448003 91.790136735438921
47.289735197665799 92.614074727244528 90.435942884328441
57.230593980806120 92.327697239309302 85.366899266778219
67.266183973188490 91.660636972682340 75.476406779771580
-48.498800625032160 88.976793681778716 25.897375160423280
-38.476886341761720 90.398734153125275 42.745958642150399
-28.585081636110235 90.562816691585596 48.592846026931042
-18.477876241712110 90.994542396918519 54.144064154319551
-8.486163017684543 92.164613810999199 73.185562256493427
1.452875748567072 92.817684170474337 82.748034010489434
11.394223896104469 93.148003282296372 86.847195632438883
21.515773887224690 93.179569947082413 89.430700757412964
31.413786611876169 93.331767922363497 91.592603441825631
41.567328855627515 93.306567851174066 91.364630677238111
51.506667182193191 93.146316966063424 88.400882985807897
61.382926926144343 92.697680967557716 82.084861890104449
71.557139600894047 91.967273731994524 69.649519670901299
-43.727478522165747 90.417328570534963 35.484596540085739
-33.812085640812377 91.251286915854067 45.758156153758335
-23.742970346847429 91.559946452731651 50.131227267486061
-13.673699150369773 91.919674299726836 58.131005370784543
-3.684036491196314 93.232386935082815 78.627629078892213
6.325244678319637 93.612980182691118 84.773216738912808
16.228889872042092 93.719382034795032 87.512404275489544
26.255389270828939 93.931438711709418 89.400437998657623
36.279445657975621 94.005632380490567 91.278987903667371
46.285425318853370 93.937973111966627 90.211533742003567
56.199121747029729 93.682473395002177 85.702896061110678
66.308206583303829 93.091757605560915 76.214120554033215
76.237065670334232 91.705178982715324 56.251021806584063
-39.503921213323629 91.581665230231195 41.718951606067733
-29.546011858029363 91.994866446956507 47.712527398483509
-19.450396454735792 92.388183047809932 53.203062305126430
-9.526426516967380 93.404759797415323 69.235643967806936
0.370111986926087 93.998424561848410 81.159927795191990
10.526956832570590 94.314827913916901 85.987937313886235
20.606158613199916 94.533902139276591 88.559121424223591
30.479072747403421 94.639216092439895 91.079474738195302
40.555580971681017 94.621712492319602 91.169413429819656
50.539403910920392 94.547660208760661 88.498994563415266
60.523593723052826 94.139136498734089 82.638728995192082
70.430643008842765 93.362442521419069 70.574544025502064
-44.246201022908352 91.806738081030659 34.748451631802808
-34.182731039018002 92.642969979921688 45.503899962092433
-24.202012467324014 92.916273413619720 50.002264805103117
-14.215980071232810 93.320008118100873 58.274611733834277
-4.374101971356712 94.345516084728118 75.772135973265904
5.749271966310224 94.984850619606661 83.758589470743885
15.809656278176419 95.014458524317163 86.602893018292605
25.749924218281510 95.185181118613684 88.920892811690351
35.783231028145373 95.359701916830318 90.612291505530493
45.724140276077577 95.305925395883605 90.011401279815189
55.696742176509346 94.961120713590375 85.594297055330244
65.767602680180701 94.503179998860077 76.550809807553705
-49.067841895052347 91.607807505459931 21.553772587437855
-39.034561075729506 93.030634081021987 41.851706873656958
-29.106711922803399 93.494435491340454 48.535001376689515
-19.018669164475078 93.709451330009500 53.617510779204245
-9.090772108449713 94.259722851972057 60.924211561098147
0.994171870390935 95.425954353410575 80.302965697713361
10.934438030415761 95.677776525154698 85.201106054414382
21.005699091094044 95.868926795780055 87.373858414342820
31.055625455296294 95.897146178690534 90.728503206030055
40.945084233736580 95.932983596285041 90.618286861005913
51.059512518116286 95.863037380713038 87.897776763016196
60.982233403433469 95.455502815675274 81.512687191980831
71.080293089322026 94.614347093481257 69.158349928163915
-43.250828651994802 93.422265062347080 35.778001748819051
-33.332250688522876 93.874494226933123 45.402262447191255
-23.216438762185465 94.303580831105535 50.058865758926430
-13.171234702520643 94.818188508649342 59.506596019875147
-3.267370327290139 95.842291433764572 75.273604471856814
6.738253970483085 96.161918079384009 83.453808635732159
16.778991268867838 96.419610269634148 85.452547802313802
26.758656914934832 96.525897170902411 89.241437236239264
36.678224196471916 96.601671619101509 90.330702224837665
46.731424725084850 96.506998957051294 89.191908857502540
56.735686979897373 96.350961363767723 84.615148698728333
66.743721932803254 95.677320493685485 74.498751592270438
-47.429065123305861 93.492732373834315 28.780788638921472
-37.551145898535310 94.561240751698506 42.758554019463901
-27.508462007434872 95.017543513903092 49.175443619093585
-17.495037534226263 95.256126962957069 55.116722209282834
-7.492380888032231 95.770255116863339 62.729174325400976
2.610987304600630 96.790187593828321 79.817251855475320
12.521792495005354 96.859166957939649 84.274120109427969
22.448446665840020 97.135783830293462 87.406135982923274
32.421559033812429 97.306147227375376 90.231045850727725
42.604408157657694 97.298248012727242 89.808543786100856
52.494391990870803 97.110041651254832 86.712545157401806
62.597014983695367 96.653124966591733 79.379296774291745
72.548158088469066 95.811688157424570 64.438700739824498
-41.210052344369601 94.732283318630209 37.512781126011745
-31.273359345178317 95.364182452484528 45.985568368486597
-21.260133281142199 95.669958921376775 50.807219073679718
-11.255691646828227 96.291313017288402 60.181688009607036
-1.162092037761877 97.105199248161242 75.006468487520308
8.740045171551884 97.612245322248398 82.791611679460260
18.723029874313632 97.691521701165527 85.551709931570841
28.819601001678748 97.948685595510227 89.718156989595229
38.781740486919325 97.998949265848765 90.069279661143526
48.803770415160756 97.857855290169084 87.828831359709241
58.847210346620564 97.551017934703964 82.546763652084820
68.809588895439020 96.840180594764945 71.662842177071425
-44.454887530946358 95.312737075596559 34.649848883377942
-34.513233024330752 95.976060541189725 43.750959585932605
-24.440296295705501 96.354935556424195 49.692833189186594
-14.578454371260628 96.896340578833161 58.017202824028971
-4.514413051436287 97.171977723949624 64.515126667524214
5.997522871490464 98.079391583054004 79.872781610284747
16.008440062714769 98.329386123575489 83.274968592957762
26.052344056163918 98.524810151879365 88.532498327077661
36.079606039382760 98.616380901880973 89.376110894789775
46.041074805249764 98.593479420501339 88.530155161781366
55.983931037027027 98.310977933992092 84.199861801921713
65.936786230766344 97.848718000625141 74.639156090978929
-47.259301934914561 95.657872089734667 28.504345893257170
-37.213660406628193 96.420859909524040 41.578956425721437
-27.238361787925665 97.059925307022525 48.902030732589907
-17.328874436329961 97.327544996913218 54.468880501327838
-7.278638250366520 97.837446410075131 63.614649925044709
2.660102141093960 98.627626769899919 77.266571486340965
12.834397981828143 98.859901258553862 81.144740659006771
22.628289662165603 99.197900865837312 87.094999389724137
32.779003595074343 99.317470714750641 89.222464545819420
42.783333453590892 99.286747173500729 88.797757263177544
52.735436886234702 99.142461949473315 85.630381439525848
62.645409482795372 98.564212925381099 78.103985407134758
72.732520752099248 97.900624911201149 62.793321705893405
-40.020084847479865 96.902198417385563 38.432889522161716
-29.994964941054050 97.694502956065861 46.798797887614448
-20.020228555919225 97.839329756766332 51.374259807089594
-9.971035720018222 98.438695452910650 59.749362716908706
0.072120805719126 98.851125174175365 67.371465919258938
10.077856123828628 99.395235283963913 79.541159784198001
20.060938486135573 99.843216110330530 85.688709985209528
30.051165966732153 99.875618629524496 88.949187724710100
39.976859885620357 99.912592309777452 89.062883767139539
49.959454452266002 99.724437197544304 86.633822478140885
60.089992125210308 99.626968253382273 80.271996080226799
69.987303081327738 98.843215010872569 68.016136361781605
-43.785727769530418 97.337825995108304 34.846483070429663
-33.794543969292093 98.052131230600693 43.554702152152274
-23.686267100281952 98.433504280616631 49.839835825172145
-13.792087028985490 98.973661370314503 57.693551402311712
-3.758191388165025 99.363694967168414 65.036196373608405
6.259684372251102 99.841564472693904 75.648582010588328
16.244810505794000 100.212142094209611 81.504545872502334
26.224493541922115 100.598767237835062 87.984155268249836
36.216001694187796 100.571099631142857 88.706400412429886
46.172376180312845 100.598921155031235 87.747807176604127
56.190355117861962 100.424533339868560 83.233120574488296
66.241582213183037 99.746395322817449 73.397910207719050
-46.512533850150319 97.796691858590307 27.995587123468912
-36.542399502149806 98.588076757990706 41.110754590632268
-26.479725041909354 99.091333780970942 48.311833288474119
-16.329783005111324 99.493928278283605 54.246649159238849
-6.476083647306523 99.890824382770703 63.403919434732316
3.525854057137118 100.171724053576995 69.773190531438047
13.503310280717569 100.691661679333691 77.301483449686046
23.530079782272022 101.219609482707057 86.825191514764072
33.461580565139450 101.354327468168435 88.408220258616382
43.420256166451544 101.173131753082401 87.861412955257251
53.527720640360812 101.072388743123810 84.854469607388296
63.628392983125401 100.579618637014164 75.902885771171086
73.496779445196694 99.515053404674305 56.109162203964893
-39.273293748460731 99.185346215066076 38.593389212009299
-29.257119340544488 99.717469767244793 46.434798949003117
-19.201343844099021 99.972856827666305 51.241579067311001
-9.192279084645497 100.527744209095715 60.815294396651275
0.793029620397514 100.809666512126171 67.524312458433769
10.652355351580400 101.183625494599440 74.757272756849602
20.705446635772468 101.782504824551850 85.112659153572963
30.749713667543215 101.830340811977578 87.731407846035864
40.736334389687734 101.942419693574536 87.695040817206802
50.787033310098117 101.810460410804026 85.543423488688788
60.725610274061921 101.476156170163790 78.507189373276276
70.809210339850750 100.678263401214295 65.234058850650726
-42.036273702407506 99.654422644237869 35.639324869803616
-32.027089047915076 100.251999388147382 44.183289305683275
-22.051010613596151 100.635116351062123 50.172714917806289
-11.935042246516126 101.062876535403163 57.848869374226794
-2.036057719526957 101.475085996990245 65.505890921201569
8.032595571265764 101.778299197667110 72.578261355652970
18.062114360778313 102.267344035749289 81.584393326092041
28.024584720957790 102.667894370628375 87.279239365916126
38.018470127762320 102.530300807462226 87.472920862352879
48.033147929692113 102.448278125871340 86.283914094933309
58.107310450196195 102.278075352099151 80.801873637602597
68.059979090221887 101.633485952155169 69.520749795383949
-44.194334962749693 100.168903702034186 32.381436925390268
-34.261950130717906 100.855543710590922 42.898885140889462
-24.257043321832551 101.183313111633211 48.796592826689974
-14.223541092195438 101.557246072823176 55.256236036508760
-4.250015411330060 101.986152938011642 63.880609518682157
5.759818196269100 102.488396712903111 71.079903791655269
15.753223085776355 102.792976436691092 77.459993825923462
25.743503486222721 103.183192340129494 86.109517131227449
35.719572510142712 103.241292326155971 86.693602445439808
45.768936152463162 103.184964104793750 86.617218103808938
55.701344931106242 103.126947919054345 82.667902342444364
65.758060438711610 102.443250464152641 72.041504031776768
-46.002330254974417 100.562450259583585 26.624990684932435
-35.891033640948727 101.475604251574680 41.198703455167959
-26.034682035383803 101.911435367631398 47.091925862785374
-16.040173142188017 102.170014604501503 52.827246867878465
-6.041062725989571 102.632629204003862 62.767369759955379
4.054956900366392 102.979054563943905 69.447753004466179
14.109430409907834 103.459569162960733 76.402305085613065
24.041806194136139 103.702786163583184 84.728856143412997
34.009750317325043 104.041836254606423 86.229486247409412
44.061775006489718 103.932165693190328 86.652671447517591
53.942166591662215 103.786061732801301 83.391979523539803
64.004772452169050 103.253314076921384 73.760877635851244
-47.811615717899734 100.833300914354581 20.141576535514126
-37.696130116825010 101.938171624794890 39.388420342622233
-27.538621106824809 102.485443915754132 45.586524924826122
-17.818097211043607 102.784037390418376 50.945383394811763
-7.795003448727750 103.306618548037136 60.752702641164255
2.186201022464612 103.700200112682992 68.367072848444892
12.248869775108915 104.076289798293885 75.867100296294566
22.225757360591093 104.382609384639963 83.170010058289108
32.262941149839079 104.629970956529547 86.323031558235940
42.258800597841443 104.643219094360717 86.523198797331943
52.248676868704941 104.431172326965154 84.018313825350276
62.166632047790522 103.950838691749851 75.333966336673541
72.258478247637811 102.904612939355843 54.972726321925158
-39.416350565045455 102.544750025643850 37.439238404712974
-29.455511585113104 103.127302478087174 43.937727717106036
-19.614136914501760 103.414028508021019 49.978448852313051
-9.517585592610248 103.705710705703396 58.278273398188091
0.549880493257211 104.244026754447745 66.283276757378729
