ply
format ascii 1.0
element vertex 827
property double x
property double y
property double z
end_header
-75.088221635259799 68.289734025633948 53.477244558475398
-70.375972341575107 69.661515275534271 55.097479055675443
-65.427459507592019 70.959457434248250 54.108313320633897
-60.633672981984859 72.158343497848449 53.514132667993259
-55.844500489086116 73.427564288426794 52.772014833818304
-50.996480136104140 74.753679160948508 53.250214154940366
-46.068476221221687 75.970859347652251 51.692966120378195
-41.457448208537954 77.975178903031718 61.424291486282939
-36.639868512077314 79.554063214107828 66.573013306993403
-31.916576884687551 80.923039595325776 67.116474552758930
-27.130591353867267 82.220233473611685 67.684568944594290
-22.352967483927209 83.467628532738260 66.907831266552293
-17.361874085415405 84.809351622438783 67.373229620930971
-12.582206817877438 85.979069647159221 66.950008406712811
-7.663179784870346 87.267858990705079 65.245583276279547
-2.924676608835306 88.421288644764928 62.955498986899030
1.983372287471312 89.596312403212920 61.447186371828067
6.869500507244251 90.700140369494264 59.095793749414739
11.770226896117133 91.673446123985755 54.257774580149189
16.700154666044746 92.617820134565932 50.889989153186463
21.601826583964375 93.589631550609113 44.770921694973580
26.682702182219664 94.148164924578793 35.859557852534387
-97.276506880746993 61.573127131610562 35.777431333401950
-92.665400162824369 63.556365944005890 44.060937094209521
-87.987178521888765 65.084083348733003 48.390218046266391
-83.235545896400296 66.667280884928502 51.609215485126832
-78.446591891464323 68.261701192454510 54.069606730187040
-73.596570511989100 69.404332424002504 53.619186573672089
-68.724894083417325 70.775912535119929 55.317556473266471
-63.868026842790243 72.051134139001391 54.229934117489606
-59.147202849192297 73.277819984386397 52.751173979212069
-54.333219113562926 74.624890295045574 53.629743988658817
-49.461721178104931 75.838122020818247 52.463147226362572
-44.765482753545058 77.227192453605312 54.833386767162452
-40.054949929313253 79.231218340582245 64.457729273699613
-35.340276592403001 80.740463561966919 67.196939385961940
-30.460657128458841 82.046490299235103 67.010971089762791
-25.558778107718275 83.307027933004520 67.846162651246885
-20.670066455039258 84.800566177907385 67.110399020105376
-15.871481682559583 85.987588163584604 67.344426141669160
-11.108775398504129 87.256822387084512 66.605619576951057
-6.140011714286041 88.310219413569612 64.646897649124639
-1.396018616012048 89.477203285855239 62.293838755577390
3.493538622213222 90.687239813911503 60.777122770242535
8.384373276826725 91.709251885373746 57.284958287093239
13.469834505061392 92.740852030111483 53.193844731570451
18.272768396866173 93.656706876481223 48.304102345025314
23.299281737581062 94.340623779377495 42.335162640807454
28.293904940803774 94.873173759818712 30.604347589038628
-95.907515740100720 63.136045919402733 40.035728534251447
-91.281599129881954 64.765172482526708 46.395079153195887
-86.423439373291615 66.309995819110100 49.842788213520514
-81.777791028624790 68.001177084262920 53.042197381040943
-76.943320684616779 69.261986352350846 54.079278182678891
-72.121293023630514 70.546131257218690 54.217843598088329
-67.239734203889483 71.839407446720870 54.802232421289901
-62.479904655641917 73.213092365681675 54.352346336400686
-57.642971998695060 74.399533599278300 52.348635836657678
-52.839680792814335 75.786368711006588 53.798014590321102
-47.940792543258482 76.945225555359329 51.634702886818339
-43.244215519513901 78.626722816719365 58.801465509244380
-38.569705627645426 80.497461446134224 65.725726538932435
-33.760944379784590 81.717118176336186 67.517981865309451
-28.901547855765976 83.250488284769943 67.428311117175724
-24.106512117765689 84.402484361757601 67.269654010504610
-19.188671214026161 85.806621673828360 67.377521885382038
-14.357071277443797 87.078463677980736 67.463559581476261
-9.630687782917114 88.236288459021253 66.166103778753779
-4.635562030460846 89.348244319238063 63.437345586038170
0.223289813561387 90.543865283185852 61.469351311575089
5.061934700723860 91.710240294124702 59.794623361376225
9.885891903363579 92.729182156183711 56.072985297362756
14.881305631494925 93.690925488708970 52.125144097677861
19.799270825330286 94.540003267194280 46.341424572142131
24.880430278140960 95.287181180162406 38.731807917748583
-98.687855704404129 62.344057396624024 31.489818330239949
-93.977151842545609 64.607036172322921 43.557510247362210
-89.330963803669732 66.214784792159378 48.251745272586128
-84.601167441531899 67.769835296649234 51.317568894532151
-79.714180311979845 69.338035470060021 54.152279730999886
-74.802633884062885 70.511713116421149 53.929170673612013
-70.194591079466903 71.867745166130533 55.282063933560117
-65.309689283127568 73.185132515920046 55.157954249708290
-60.391263066954565 74.381003539719558 53.726568410738047
-55.622237137519598 75.598024025886971 53.212883530463969
-50.812924891762343 77.000526464779938 53.313085657807491
-45.913454178421247 78.301369869428555 52.909942236951437
-41.238541814097061 80.287740314440867 62.784053288027017
-36.531609192330649 81.788550916001157 66.745509786070230
-31.670508245488286 83.121040764731433 66.886652819458675
-26.912812100499060 84.435306532627109 67.475589680992854
-22.111548266489589 85.660328928841651 67.094306858986712
-17.234277796914558 87.074598109656534 67.467515079994016
-12.431756188570564 88.209569506731469 67.037526401458308
-7.579983281456569 89.533208794557950 65.434227742484083
-2.606436509462389 90.570504433305558 62.097539617037270
2.183436274294024 91.826586011975834 60.421538300612077
6.999798831888608 92.865056675157646 58.022441661076293
11.948468958157765 93.784591279262258 53.234145091083761
16.911159581048512 94.803647857554708 49.711313547818769
21.865910100074181 95.548504775411089 43.828841420957161
26.889987339263016 96.169861235977180 33.373103641969102
-97.368331727466270 64.232414134049009 38.905945603605389
-92.593341245383073 65.849123735742921 45.989340294001238
-87.815607238754112 67.425995411575855 49.665381675643303
-82.999350255770537 68.944449724529719 52.785544989904757
-78.335825141969181 70.400438570986410 54.283503988282369
-73.397190594344337 71.698627268605549 53.929066838917940
-68.655192791393645 73.089116137922460 55.547236312608121
-63.771706563429504 74.341352263386014 55.146082636780527
-58.972175130360270 75.570512609197408 53.178413292434136
-54.074621097172624 76.811583489726900 53.986068510633338
-49.182781375558562 78.003858862513056 52.171835662645634
-44.362689029785926 79.688092234647797 56.349084170876402
-39.858096038223678 81.537599131382152 64.619618495531554
-34.979629958709431 82.989310337945682 67.128569389323516
-30.243651963028761 84.239993605814362 67.171821728408986
-25.346356888512211 85.587058746440832 67.416085103599315
-20.637685103132135 86.709782332897902 67.262156795238383
-15.746657180359293 88.144761453676821 67.213476083221934
-10.925959432884111 89.380357086653646 66.467557545277586
-5.891647170958050 90.623744587304216 64.417838548625099
-0.973293375989027 91.649477685323632 61.360065828990777
3.726443467607290 92.887575183791967 59.856884325526870
8.597748133930832 93.863694267835044 56.978852981008593
13.486591853303583 94.877816033217528 52.830981472590189
18.322237965577589 95.816924380898641 47.422102804470768
23.490422388933371 96.512761561171118 40.847512358466368
-99.932881503966769 63.289627984303763 28.566671675321594
-95.309371645374341 65.559736113083559 42.545094841060376
-90.569334919237917 67.300901015840140 47.975115872281343
-85.944587518384395 68.890653030280859 51.205058470262472
-81.090923244115487 70.434186900713144 54.099651425856727
-76.353636917370849 71.588420268882516 54.304819448954113
-71.437235725146465 73.011639253071507 54.727245035508915
-66.616129952683011 74.304430291891407 55.676032299256853
-61.782896929145082 75.585542919742693 54.510887487767754
-56.880129203533343 76.874772159470311 52.694261572073785
-52.106275587212977 78.191052346647538 53.723883770096286
-47.178213050359261 79.221637819807185 52.676371863690619
-42.619149916479429 81.306106791819303 60.480610818316435
-37.997206564326220 82.855677885016377 65.915299229998269
-33.030159209111716 84.131734693185209 66.897379677880934
-28.172173683288349 85.487622582900244 67.089981605103077
-23.424767929857445 86.738919540200044 66.988422890302658
-18.632827460150541 88.033195011352220 67.000950904520295
-13.733605452424175 89.260455537836762 67.008084208809947
-8.817778279348946 90.676005560903207 65.815727019964257
-4.052708890270134 91.771078726687477 62.681898336943995
0.953020491689788 92.684811953206889 60.297494236563935
5.721316056225501 94.022041350661013 58.313705259920567
10.681095295217318 94.909964158416102 54.315303062475138
15.610285100689634 95.956655190647538 51.240354351522967
20.449401398699308 96.878922883894731 44.965448791757652
25.420512184317715 97.444545582170491 36.480442712396730
-98.062731737044729 65.278709443683567 38.449541567960679
-93.379315649595839 67.109347806205918 45.804306439896543
-88.756057768210667 68.657531270497742 49.784270267972310
-83.856246121600208 70.219578947281292 52.809265627688347
-79.242418529866001 71.641158257141910 54.612658894851663
-74.297399248115369 72.907777500325139 54.444299007881348
-69.467061120812645 74.248934750976645 55.431947280413240
-64.558136821899552 75.636152895276069 55.556945827824208
-59.837245443447273 76.796811105173106 53.433914036931135
-54.929900897975088 77.939502142479711 53.733447779130444
-50.087366229638413 79.268898496888383 52.623724756002261
-45.372501732534822 80.710746369023255 54.923845401176777
-40.716745701536169 82.573682420614148 63.632579584102395
-35.877213354214646 84.172583204643928 66.398594630932195
-31.026856802773082 85.425957151551572 66.922149551354579
-26.138433986399384 86.768993286629950 67.305746393180755
-21.390054196792256 88.029902212383746 67.057341753987942
-16.623032436533290 89.337944342079993 66.935915171395948
-11.741797175474627 90.583100890557716 66.508811052032911
-6.822149889572190 91.755229565816904 64.765988452909241
-1.906340077639451 92.845436570044029 61.351114951637129
2.916952975594040 94.036769064720048 59.433459779078511
7.926523011317524 95.056765902763402 57.322510687054667
12.617333919188834 96.093254320857810 53.123886540359344
17.573337016661384 97.068673441450485 48.087394229147286
22.617703790606505 97.737100623661121 41.590644518643487
-100.494017758456152 64.951361610382563 33.694369248742419
-95.767752680464142 67.095600695041128 42.890827432829248
-90.998585634067069 68.780856884002304 48.577012597991256
-86.212721294260632 70.197270950895344 51.593676923922416
-81.487887621231096 71.735696003154473 54.385818152973471
-76.687917569102083 73.228795747242827 55.122195321273715
-71.886326276651900 74.409192486375005 54.850097307864615
-67.080366906490525 75.724371709196092 55.680864385347995
-62.120322135949763 76.880351064622715 54.673704952572315
-57.312261502551351 78.073876182269757 52.692600740844291
-52.479728644918673 79.406362795790585 53.284403119562000
-47.525041985145371 80.682623856979660 53.109699845547823
-42.935888357131041 82.531976914747489 59.965971013182013
-38.275444343095472 84.125605763349824 65.170237559850676
-33.267445263370007 85.563078273954446 66.691308686129986
-28.450097808054572 86.818899688402652 66.662342889713344
-23.748724326799085 88.138393245381977 67.123441780839528
-18.932931582531427 89.480406824905756 66.680961582527416
-14.023809982763165 90.659674391223589 66.562112813289161
-9.179155831838644 91.913136638405234 65.571134323348105
-4.376712296845534 92.933335085799570 63.004654039082006
0.484834356781843 94.083580947559170 59.511101680818228
5.453805237618674 95.271974787002762 58.384789962434418
10.373314734666153 96.339062585075666 53.945781146587294
15.177702638034525 97.335820622508095 51.534389016215904
20.115342363239549 98.175924332185446 44.801331959386587
25.164600082051130 98.822402058342036 35.925701960334948
-99.485237986443991 66.298998373836355 36.928417655593989
-94.596008305842574 68.109143495794029 44.820756248322049
-90.069976985949211 69.722490305042896 49.436102303712602
-85.343541089156560 71.322101385391662 52.236158674893943
-80.457457901413861 72.682543195645366 54.700722850980888
-75.649579016254336 74.080178161712325 55.163278918931788
-70.861323570363496 75.292950677222507 55.051983177908291
-65.995840107676841 76.734889175204941 55.526734493548631
-61.144322427923214 78.029357346298823 53.746957174429717
-56.256044363021829 79.227589836044842 53.143056779500689
-51.374288688711580 80.419294211909886 52.899585129395646
-46.775430547797200 81.699844943496203 53.964879077775329
-41.902045122393488 83.514544035395801 61.944841664081999
-37.200097592125267 85.255905462538209 65.556962596748463
-32.375958160458822 86.530123877371238 66.699562347033378
-27.721744817429936 87.792027894229179 66.895122698268295
-22.689862767577605 89.151241122490745 66.857562802870518
-17.903777854716946 90.396841678336727 66.507092102873997
-13.150480886663452 91.623934645632659 66.064368981703694
-8.201973846867938 92.729589193223632 64.887762447614634
-3.278625216164469 94.029731273587302 62.026540585422346
1.468092391763861 95.057054771551833 59.321459054363068
6.441669795741102 96.343861787816138 57.609313150923924
11.375578574496679 97.199996408507687 53.249472676523986
16.233109948118457 98.211267190495818 49.918093096700915
21.119025937030973 99.116739071935768 42.922292944709277
26.257609805587364 99.624755945458872 32.779780253371911
-98.445004052093807 67.419283855235776 39.370531896164366
-93.634373719939987 69.303494435182074 46.361835812006341
-89.045131140428808 70.886608525009521 50.426680891855014
-84.205416573742610 72.395868398786490 53.012750109474872
-79.429667819189447 73.836407524132298 55.150419836453359
-74.644251996835749 75.163456987987288 54.660247864823212
-69.721343514176610 76.404134473548240 55.026266194575868
-64.868605242603905 77.858339439552935 55.346262611713215
-59.994372336782348 78.844830261853133 52.768057214991174
-55.169632842489555 80.135802651440898 53.669780652910291
-50.435311977604442 81.496371357091448 53.541231805160479
-45.534383163322971 82.970343748027346 55.109082831371509
-40.925184512190086 84.761513809489799 62.886874193508199
-36.098646411670003 86.123174500532699 65.692503811097311
-31.375886634195737 87.496286111526061 66.824585287373566
-26.524062311800368 88.838258137591637 67.015261906557967
-21.734547886656934 90.093504807822825 66.799344082210638
-16.845905037625606 91.370373316835426 66.154183222071538
-11.926427162334051 92.582613820652909 65.688453177306315
-7.209334656334255 93.751739863838210 64.540316074643641
-2.241139091575102 94.861842544548125 61.203161277806210
2.501726137093378 96.052143193113466 59.074876276336504
7.485401682178694 97.249473097518660 56.650009211124782
12.288368394537340 98.250376499002712 52.964278132122416
17.296754392050598 99.150766738625180 48.183002674585445
22.303521139733864 99.948378550435422 40.458780560062031
-102.568515929496385 66.406283174522571 30.737001331809303
-97.883413235860445 68.342238109634053 40.475771062817088
-93.213139068367994 70.238169983091595 47.304634525013114
-88.461651377045968 71.834106426137055 50.971850367190534
-83.696893341980143 73.214949820327178 53.477563956756043
-78.875735642655513 74.677145470716269 55.387288804882630
-74.073421177306699 75.992354368856994 54.601873548866969
-69.270185191044561 77.296638030973028 55.225751317191985
-64.394677678354384 78.544918756884897 54.853239511093754
-59.498719895444864 79.596118679581281 52.482114057840079
-54.767768607117233 80.972364156283177 53.493495899112034
-49.814143813801493 82.337279332590668 54.100833849759709
-45.103757846469264 83.814220003811982 56.332869059900759
-40.517868859470269 85.574387133026974 63.031488049486377
-35.629917704296062 86.966899049417137 65.735411434369780
-30.735828196025381 88.305671746062572 66.811931700114201
-25.981393385457714 89.686159113176259 66.987951269874841
-21.208256267496424 90.805320415291192 66.503143925570342
-16.327571413472882 92.201107882355615 65.957917761241731
-11.429381989699635 93.368256248372788 65.152866911347687
-6.649512464614986 94.497819029976085 63.747017400744454
-1.793690641106991 95.767902902399101 60.658434197779584
3.213432812513744 96.899298709364061 58.674617674236018
7.951352174397329 98.075499145953600 55.818323555762497
12.896483560785363 99.093837761386425 52.864442175293320
17.889091976779731 99.981169068194177 47.198959481383071
22.840457668263422 100.587224815568860 38.440914909646281
-102.541839744550714 67.377267810195164 32.262742043008160
-97.834783281979497 69.260816059221526 40.894365629429004
-93.149975363874574 70.970244480241490 47.378255011264329
-88.445078461042442 72.515025430388036 51.089099429682769
-83.684808346017590 74.018662906028368 53.480876679011182
-78.749435978394800 75.449965074337371 55.335289286153930
-73.983651102185476 76.736638144596000 54.939796428843195
-69.158744742882888 77.972497802344066 54.868495617777846
-64.402476455090493 79.364370420402395 54.571865638884425
-59.446837087049715 80.471188583734460 52.577442222841533
-54.699544904541881 81.710148550164845 53.523467400685213
-49.783659047944496 83.121684716849188 54.205573244784581
-44.989097870320322 84.603269523213456 56.277449378901821
-40.253078258049086 86.287322583886393 62.893642837168855
-35.492503392294239 87.762825667206783 65.790943926714363
-30.662078846129447 89.058235694432312 66.751220330557743
-25.955827226965305 90.370832513896985 66.931775299488024
-21.002604596376493 91.595981655615034 66.287122058237586
-16.331574322807750 92.802868909046055 65.863003264207492
-11.396740732535982 94.083424968014072 64.749150725049816
-6.590865177584615 95.394090054482987 63.471075370636633
-1.537978393234113 96.398350236469881 60.040726395236518
3.204148675670776 97.591727456736905 58.405048575711383
8.065347082034766 98.677410236366740 55.315335558443202
13.030039247724453 99.857338794017608 52.583905595645611
17.970431781031632 100.725844390242983 46.759431080004205
22.873227532803678 101.361986218376842 38.025234941780390
-102.548716448883113 68.203957266107835 33.580177089985114
-97.858424204809069 69.997483767449381 41.318303914696330
-93.140425683669179 71.701834216067482 47.618386459420051
-88.278998899260415 73.321222761556527 51.283238954080517
-83.527101128412170 74.770432882788469 53.315713172683516
-78.734239188720196 76.209774011371096 55.303658292348615
-73.952363395672734 77.487436335342807 55.305756275650118
-69.181787683633431 78.772074048649529 54.762425432659853
-64.248854122901363 79.911322381726379 54.250763803871344
-59.416220652346510 81.132721225842658 52.646247371113660
-54.620219817058057 82.523889330367567 53.646389956432813
-49.780431033480781 83.880674537220287 54.388552909358012
-44.979623173741047 85.386767532412250 56.113853034114904
-40.288815016286030 86.981858300739830 62.633916996844114
-35.492150531668152 88.616958588815379 65.570565227340097
-30.620902393449327 89.820111661141894 66.598356739260296
-25.791461234238113 91.129781740881597 66.648026943424327
-21.086367828585566 92.392537259281085 66.103355295553285
-16.164598161307069 93.595032095704710 65.346315434022799
-11.271747244521947 94.819066205108470 64.266339593953745
-6.449409690513153 96.025602794311908 63.166667625343344
-1.568511385199002 97.184245921326621 59.247121186867027
3.333789618424916 98.458894223230601 58.219324965611939
8.185844841468533 99.418171765409525 54.934108808719785
13.037581409669301 100.634425509385665 52.251408030218755
18.039689045956944 101.425719025697333 46.269004244142579
22.957645554669305 101.990982586497921 36.970830028124780
-102.944110403863107 68.810235525583550 33.757440587812056
-98.262652299619717 70.557273395827679 41.004957101071241
-93.558082334961966 72.389737529342312 47.196471293729090
-88.815882170378046 73.885591317414764 51.196312595119693
-84.011125948861022 75.410287083860382 53.166019850490500
-79.195694057061758 76.711193972674934 55.032964943438763
-74.410260614147944 78.104288493383123 55.290627698824864
-69.478497227650763 79.239171796226472 54.542029802634119
-64.597899190898971 80.614851324909353 53.868859579656458
-59.876680200563740 81.718755078856873 52.832662118196076
-55.062207583506300 83.054279887312234 53.791109220306950
-50.227868037646566 84.585210716214490 54.454054832053522
-45.477531796573345 85.873648659414670 55.205607788718659
-40.637624236740038 87.614741364593669 62.029626564259736
-35.829573184130908 89.049803269355422 65.015838709302585
-31.028961989009616 90.447232815505870 66.309702469986917
-26.306828402900237 91.794193707104327 66.364522805652769
-21.375892136921586 93.046663788164764 66.108710496615515
-16.648180038064176 94.262707619514899 65.257806491653099
-11.733393287389738 95.358112603341652 63.907828988271419
-6.836223234365645 96.614884394160157 63.060918275157974
-2.034089131301901 97.814597111089171 59.345612372912981
2.847325774564677 98.950084680396316 58.096788558813223
7.837660519136996 100.077726766772088 55.112301300405143
12.706406026692321 101.168208629405584 52.284357146229965
17.561487289487435 102.087133412358455 46.798843489186787
22.576040123578014 102.693906606185308 37.499202335925879
-103.326146136218398 69.367752923847007 33.580072102316834
-98.675664801296548 71.226923499965011 40.787735719960651
-94.026399385611157 73.076967836918456 46.752555592945761
-89.138064455009939 74.588859971911404 51.041668017486401
-84.436122432568695 75.984890773478966 52.665469561963612
-79.634525095187783 77.352376561358838 54.984307344933697
-74.765133451920505 78.760324394514171 55.384028813436956
-69.893927106196756 79.918934950077158 54.309222152189847
-65.067247717719624 81.173227732804449 53.626701666519516
-60.284154381723340 82.285611384069185 52.743326277488535
-55.371981113894691 83.837406797213703 53.680104097389702
-50.636623796173112 85.214801636429613 54.559278124094348
-45.754278900055830 86.433965198948869 54.467252514707646
-40.995899779624125 88.131289231217039 61.197250685614748
-36.342596448629486 89.610588721028208 64.566415110987364
-31.534188216996085 90.951265110203863 66.087110371980657
-26.706206014420008 92.351903775001077 66.055977015270614
-21.856201870034639 93.551880740534884 66.041597360606289
-16.977094521995017 94.781376597049118 65.255524513170428
-12.083051417689404 96.077643085248951 63.616291666428701
-7.397457196592477 97.273027993518838 62.603774463828003
-2.333546278104421 98.370847497401172 59.343695861912053
2.380953893368432 99.570972789933819 57.910465330825751
7.239730003033312 100.821045499261857 55.536357238938251
12.121016021212593 101.770100153858607 51.999689199727626
17.166186686379763 102.734211690253474 46.810849357786807
22.197825777007388 103.327739122938510 37.914042278651351
-103.280367850871443 70.219604168123610 34.059541769274148
-98.674296061069796 72.042295797796385 40.984252736907649
-93.966093975466194 73.681755963833211 46.937368322751425
-89.260033232426537 75.274779469614273 51.197824872523469
-84.310314676765501 76.773637135400776 52.534757974343741
-79.605677467908109 77.988939022765351 54.792325850578294
-74.795897368161476 79.374017949322294 55.418751753390801
-69.891523868488648 80.731590118832145 53.969558036702779
-64.970984390166279 81.906687471867400 53.723611012518752
-60.291521428933450 83.221260778007846 52.555532637330458
-55.367085304321762 84.519238633337892 53.806279803246134
-50.616939961775657 85.828826352493408 54.361082377567890
-45.729549384666129 87.127199119239307 54.733847214206847
-41.046367521694918 88.806877277457716 60.731928498260103
-36.266848999969028 90.364905461507675 64.000009227953143
-31.519563341741261 91.713018122263875 65.536217766519641
-26.648069977318833 93.066029760403154 66.043774585291700
-21.812787078904933 94.329819777803252 65.741344669937220
-16.982559834719535 95.560581845044780 65.214751056084367
-12.088478017687166 96.794462834500251 63.116446319025563
-7.253815613452756 98.038643394757145 61.985413760185494
-2.290997120379721 99.094415429432757 58.619243160962121
2.471370413359452 100.250443855867459 57.766090542509325
7.397677548306277 101.412376667991950 55.055161133190104
12.189390922397564 102.546173461846976 51.631135845300719
17.199949250897433 103.373835963436790 46.457695627873953
22.253685569795756 104.147101998969447 37.331698178184610
-103.732275916133545 70.850657550300454 33.804425128595227
-99.080908696101844 72.621037201654602 41.033949744693061
-94.250156551120142 74.300381119824010 46.396799796845890
-89.503320298262238 76.048252126450265 50.939695220529337
-84.649900339375961 77.300533805794146 52.232020619152699
-80.016320784645984 78.699304565850269 54.748397584683588
-75.158340540498884 80.025518051863344 55.219551822487773
-70.303128924947174 81.299803809756767 53.996151123971877
-65.447522855503067 82.517156143924808 53.784629033978028
-60.642940318257203 83.765124545091780 52.653010430952278
-55.696310583790542 85.192373369309308 53.583430465376750
-50.952105126135805 86.482193328636683 54.571190964498996
-46.108166352003252 87.838340636440336 54.634912717841964
-41.365431341982628 89.403576333609408 59.185640557462641
-36.717947264135638 90.987192179708643 63.471150953224743
-31.815859339969727 92.397188195267262 65.062092012082303
-27.034433932375528 93.608441549002038 65.431865815099172
-22.138267208241899 95.020191185890553 65.494122172913421
-17.333651243633000 96.158896224620037 64.872350583360088
-12.553684685567816 97.451299076533203 62.892769079996043
-7.756147159824183 98.715727463264926 61.674680946199842
-2.870119033817293 99.728852634438766 58.569746248980714
1.969489199736795 100.940093131512370 57.738045437364747
6.964717019934053 102.056333564328028 55.207655747291625
11.824960426511208 103.119317991466573 51.511025686399819
16.761712195904916 104.045072394533889 46.489557115440661
21.771949051350202 104.767227861295169 37.572439987316393
-104.243021428924067 71.520628844667357 33.422221188984729
-99.492080624536555 73.206043968944030 40.756822703852450
-94.700085412258915 74.865642180939417 45.967898854912939
-89.973003890386991 76.537737808179514 50.902279126382247
-85.101122473899210 77.910293955822425 52.443780547736566
-80.286783689284391 79.332621904326601 54.427063418130480
-75.564288393743965 80.624018530827556 55.118695932504977
-70.780404264750189 81.825170905603528 54.073723022827984
-65.906148048771612 83.276034296396602 54.221108534738121
-61.028393124635784 84.340273934388577 52.443807612426909
-56.150502163687349 85.698639062468104 53.392392996920044
-51.382872781535156 87.125247354049449 54.516313866630718
-46.562745123790918 88.431409428181297 55.019554099286246
-41.897516624124236 89.872767306073229 58.587542250520599
-37.107982498042155 91.488828574158362 62.850487192239996
-32.270137618307629 92.891255039967177 64.187328902890172
-27.523241007964891 94.229106356838741 65.099884618391570
-22.636136421104148 95.569970074069587 65.274228504004469
-17.764384329640141 96.731802732348186 64.531972603128366
-12.871263462077607 97.979442280568847 62.734915728796928
-8.119144618573923 99.214645972018232 61.277970869845973
-3.126088340150687 100.324600864624927 58.520818526024364
1.569772042927578 101.426663718955112 57.492910322865953
6.425965662108833 102.738827726890833 54.940474082661929
11.449519155251746 103.733534639539670 51.525260669100788
16.358104896978457 104.587701764185041 46.566829844436015
21.228426571835470 105.284984300807537 37.759539917455555
-104.151719198414753 72.187398699726458 34.043361690440157
-99.381177666818729 73.963243313211890 41.079681229077408
-94.729327006245256 75.624404285216997 46.024084422997383
-89.904283355898599 77.333022467802664 50.685759547102244
-85.122563247159022 78.557979757832925 52.346685918054398
-80.337673112535498 80.077757480014270 54.248963007478871
-75.454843565736780 81.330822999083807 54.686867723971318
-70.658138788351721 82.611887339432585 53.878819446697356
-65.854150220254510 84.044852481669437 54.429394104509292
-60.907396761815363 85.079171653004749 52.435027267418711
-56.142491971594580 86.390406683711689 53.537440908822759
-51.413004516312341 87.907301171631914 54.535175484250303
-46.568866197815240 89.274732850108620 55.281297587368002
-41.734162762147363 90.670141585301337 57.788076715889034
-36.915993069142601 92.194525142104382 62.264734559577235
-32.235945330922156 93.573067706629558 63.411212419496785
-27.390309483697699 94.964923581283045 64.690007036906266
-22.572201110744089 96.211462280173521 64.658839779112668
-17.748068354026458 97.426213864185328 64.180610320317783
-12.902627583143840 98.671933810585728 62.278451320745795
-7.973173225110738 99.895894645441942 60.611246619675249
-3.133091020387575 100.961467807575232 58.052834917421393
1.722083058733691 102.225846647752434 57.292940050237142
6.568422256970955 103.362608567376441 54.563825232687556
11.427514452411458 104.360908655872421 50.929804535352872
16.399673260247518 105.385789354681037 45.775904260234192
21.433152170688359 106.041514152308011 37.140426677431407
-104.025452138799409 72.957908027452390 34.361552813699184
-99.437233734587863 74.801100125483998 41.592439197285287
-94.698812427321585 76.369765937337391 46.249589901824990
-89.885601805490893 77.987088227582149 50.782101586852079
-85.135245895405092 79.303860070924955 52.197651987525781
-80.401974656719673 80.754623235614218 54.025177088624389
-75.502228940339080 82.142138161899993 54.483522051786693
-70.623972503669563 83.327222871174740 53.802369093129656
-65.841446680068799 84.704398283216236 54.195837604415217
-60.934154263762693 85.773375730140103 52.365270387249346
-56.033263645894834 87.263123392588923 53.307425985784946
-51.331411710489277 88.572217298193110 54.715216537739920
-46.430317648413101 89.949043428952166 55.040544825046020
-41.641217359974874 91.255523245090956 55.639047970938897
-36.985194754230108 92.881881182821800 61.659096880331198
-32.180459708125127 94.246230980398352 62.871372489432034
-27.387944188535009 95.581906320303858 64.175900025908135
-22.587335847487772 96.948648783480536 64.323382208951529
-17.666373378275750 98.224149893685507 63.804462281294775
-12.842531051649843 99.386264324932768 61.868914032443726
-8.009166049352642 100.691562059655851 59.959555506324428
-3.144516980121452 101.771435289569581 57.834523706665593
1.843251620012538 103.020903718269153 57.040279970392895
6.616092467688443 104.124354165727496 53.974769971056858
11.576742914118338 105.085927480491236 50.508239264301800
16.475754356830674 106.069744939333447 44.965187351646918
21.458510985995623 106.733647319121232 36.415495071801644
-103.579424838338070 73.840846737876717 35.867287934220201
-98.806638228319557 75.682133686530022 42.460914283880903
-94.090531252471322 77.390175837033411 47.067075423373069
-89.308082610929063 78.926781642528738 51.024621042117040
-84.404625233101825 80.194397033884400 52.157406910508016
-79.788435604633179 81.592220349983194 53.622636104909354
-74.984704215206960 82.975261950221196 53.942705853533781
-70.178919742812639 84.283082690618357 53.982921300546579
-65.176684519861169 85.450990012715337 53.577341377446345
-60.353773947000576 86.720212009178866 52.153132355871904
-55.525166650139589 88.094284411948294 53.379701924192020
-50.786973834178482 89.413335495548367 54.850514423463899
-45.962195330813486 90.721768847252605 53.874971257261656
-41.078473063675375 92.134308872090116 55.440813312814043
-36.378938549010144 93.802058457602200 61.031616676068523
-31.549472773020291 95.066982923961262 62.366464096652471
-26.749060857789512 96.469814277467634 63.710608616078339
-21.877057688441532 97.793845799890775 63.742474738980604
-17.159564184189080 99.063148114125298 63.029735658131166
-12.204020382812971 100.245400961974113 60.913890537988564
-7.375659756984961 101.439730438346828 59.354405074896654
-2.544444567234518 102.502339217815972 57.505546390055585
2.261921404163299 103.763207456898769 56.565374591880698
7.247385298224096 104.917249477865170 53.161722916040830
12.205332713351879 105.961031326944124 49.551142247101112
17.179239357352312 106.890533248900269 43.331181894171564
21.938315910513957 107.562598588784383 34.400733439151260
-102.982654218050143 74.973057824592019 36.933258054596450
-98.310167867714767 76.679669760912972 43.099294052221218
-93.490605922585587 78.143868072137664 47.625015179462530
-88.908375113885384 79.766669515977668 51.218130655663408
-83.945477174108845 81.122605683862290 52.128125283633366
-79.254258440312171 82.355184893956206 53.466327794461627
-74.365074880929370 83.812135106442483 53.352734898793187
-69.482139281291168 85.096635261589881 53.996170206301407
-64.704830272839828 86.362025604703717 53.058295687517877
-59.940249435215136 87.628943372546459 52.161736548460937
-55.155109029084457 88.964418192838465 53.207967155193252
-50.235316799343707 90.380992329758783 54.754636147721726
-45.341936221653938 91.596659009709327 53.594264192709630
-40.599408467388024 93.041767144276648 55.105168422502970
-35.852004190283004 94.626664607728372 60.378394075634738
-31.044973765686358 95.995068893479143 61.755413974285126
-26.213226354337106 97.372753134709043 63.195120300547423
-21.304267807350406 98.564259421151235 63.252271115780779
-16.581982605808367 99.791629629777333 61.958614757126625
-11.614362047284686 100.917620138320444 59.769917173438245
-6.888411763748238 102.222390137694987 58.585929917969402
-2.023391722777284 103.600016737397965 57.148166924984118
2.878854375765805 104.652777427331259 56.013905511237077
7.751530014615675 105.688637791784814 52.637234092485187
12.695134197065826 106.805239879375478 48.554173730056185
17.614637855232736 107.519129237819186 42.133667241918751
22.597912516634270 108.030785016497120 30.350422773119373
-102.525527259756032 75.965525676937048 37.861602663965073
-97.659940165628967 77.571861336224799 43.843638558501887
-93.003325594153210 79.073523159820297 48.002131062354934
-88.273671673287851 80.625966810527231 51.395439808002081
-83.515000346574354 82.010550101863402 52.082402011583561
-78.658445294752482 83.443220314667229 53.323672653154823
-73.762991582904490 84.639119922547408 53.265672712289394
-69.027454666793773 86.016566824580494 54.071393077349100
-64.211208661980038 87.245247368733715 52.968938273627373
-59.338946053565962 88.524121376142190 52.057065861264455
-54.462410887025257 89.834468231673824 53.334331951638553
-49.533231356873856 91.205880892310844 54.687775752479851
-44.849562176341010 92.532178254410411 54.166933074643630
-40.027606869874077 93.929101065771832 54.929588922433595
-35.230640360573702 95.377767765822242 58.978992717927099
-30.374078549307868 96.908374283036366 61.334895343656918
-25.682435968655145 98.165474936401964 62.373170247835191
-20.842977943828156 99.371276385228342 62.519421413195374
-15.968444205533423 100.635245686280797 61.102762118957706
-11.174850217450071 101.888513834165366 59.170221278486707
-6.189363162963291 103.175812329420012 58.142381152489016
-1.396054924134610 104.284603341711133 57.137580617237852
3.561127789527855 105.634881659433375 55.052700459500990
8.408386021264025 106.449849537209772 51.682794506081990
13.151256966206613 107.522387803064888 47.507221529607044
18.272142628294688 108.441658717330256 40.336670603602442
-106.517809811786435 74.742486952259981 26.390049152453340
-101.979379392718968 76.765817068965958 38.965278408796578
-97.331477367131697 78.459817097505507 44.119893058609136
-92.472977079364625 80.086140183760563 48.536808428135366
-87.702041201505011 81.496621538290171 51.331503154026578
-82.928317337202259 82.839876771071900 52.178188219617709
-78.039976451815235 84.213630723270782 52.824054761944154
-73.325924131337288 85.526219846638995 53.134645231306571
-68.429212142909748 86.771435159523193 53.901379867910926
-63.519790944919038 88.125197108104771 52.720699170834564
-58.625129776039039 89.341078619160768 51.925114500194127
-53.924077793226367 90.796732735170892 53.329220470485950
-49.078025651317859 92.166356719773731 54.264444138803754
-44.306874607382213 93.465920097730091 54.695392921518788
-39.473094961395923 94.744135097965454 54.609738966893048
-34.705460324395396 96.151474843037136 58.140174857476879
-29.944579871244677 97.855389734962543 60.985768415615993
-25.120311626335784 99.009108515489629 61.619341383233717
-20.237775629335221 100.241855361434361 61.692421917468806
-15.409563583756047 101.530064859200593 59.812919953114580
-10.456941847074440 102.737284591325491 58.662993680826162
-5.692560596970941 103.850324878484372 57.724745374212702
-0.894006655971662 105.231128035965568 56.831504102708458
4.016055939631801 106.280489376240396 54.246814455020797
8.857859150283964 107.468206437260463 50.943003916836503
13.899404962394406 108.362011584873528 46.010434741735274
18.724391776758388 109.131067931233645 38.309883913542869
-105.692831502286666 76.082977198241181 32.294841225132338
-100.971065935137446 77.960149967106119 40.118251376572211
-96.271632098292542 79.583730103149009 45.244610398073732
-91.414916300335477 81.153187608849350 49.212656367643561
-86.623411137839526 82.521627028967217 51.454622063232435
-81.839469062057859 83.869558963289194 52.216580818855171
-77.081921786608291 85.209240150596756 52.887330867825924
-72.262649109472562 86.528873870041593 52.739937713954859
-67.443959048213031 87.797157572276475 53.483325117551864
-62.565450457656780 89.042572832227663 52.435363607415567
-57.731145330768022 90.395118364782377 51.920926956139162
-52.988508370424299 91.673429917115953 53.669304732702471
-48.178695055137808 92.955994087190149 53.624773100969975
-43.259833094092627 94.397915366404547 54.888397596251146
-38.439163986632636 95.622004019560237 54.401357687600289
-33.694783263345315 97.241947563265654 57.580384341739340
-28.925975658631025 98.576830910962357 60.462388855830739
-24.167581392801043 99.878389244548345 60.709744404253655
-19.216385801150526 101.251849374963456 60.295892831827146
-14.335983193767849 102.494526686752920 58.321583260857409
-9.596967907202055 103.680612092694545 58.249535519733762
-4.729908393368415 104.874932721366648 57.221676794491884
0.077434856431406 106.231375705584497 56.182564931676097
5.087663747308113 107.224474527979851 52.479713075816761
9.991348150911893 108.367807255213407 49.410341321629069
14.789536663044316 109.182157269681355 43.459985367171655
19.850292483115034 109.929311763763621 35.645739887672377
-105.125640929134477 77.106207727562094 33.428924835576566
-100.483314366539787 78.895436931575347 40.848604070872767
-95.701184281390823 80.405746974467178 45.684939920807778
-90.952061738567409 82.056454718104206 49.464256371999298
-86.056969724500718 83.552683240119848 51.450325269708749
-81.224626234463486 84.721306510503823 52.269917899539521
-76.587202500089816 86.150522749888808 52.934735892965364
-71.658109608476011 87.429387231559929 52.671212382990419
-66.898293558663923 88.624337470474032 52.903364784311826
-61.973138904202230 90.031980927345927 51.975564080361067
-57.119116985243657 91.245318619697727 52.052654320967164
-52.386614575286799 92.626047861630724 53.472532892677307
-47.643934725070501 93.884204519562459 53.355530697026559
-42.751619031522061 95.221903708572967 54.478335739956968
-37.887261498458372 96.507465112774028 53.829951560907993
-33.256118481165444 97.960378261552833 56.057696008747818
-28.221269735592209 99.558651748149657 59.325844643801432
-23.462822122523896 100.682750471917714 59.621348794727901
-18.667606246814632 102.082717596715781 58.673006050389240
-13.757345491319356 103.263753177640353 57.585112741020104
-9.051336615966829 104.670230548427313 58.256407983364639
-4.084467164126337 105.770031765868140 57.062918762596006
0.678141166717577 106.970813959400459 55.385611000257931
5.575992798777762 108.067292640145794 51.808022405649467
10.540339083047645 109.095213619255929 48.003105070118728
15.394362686969696 110.061325943976627 42.367787842770518
20.377033127503712 110.792532624429313 33.107643287443423
-104.650373259388189 78.123149631195957 34.620548300924909
-99.878820342578763 79.720379178239909 41.289355766351719
-95.165011723806998 81.401625064038058 45.983842539870530
-90.341598862165611 82.881014267906679 49.539579686366629
-85.627202050997283 84.276609280352559 51.517402229871976
-80.810591235330392 85.738106474171545 52.455265613572521
-76.045325912917960 86.995544937440087 53.204702173597482
-71.129173156978780 88.345748369591405 52.568183976651198
-66.275929088632907 89.520716067251158 52.311912223776183
-61.482530323360592 90.866160612482759 51.589984810448257
-56.673230612035923 92.143748613201865 52.087005975902571
-51.817850349769209 93.468967967625247 53.440988770128634
-47.043288388556924 94.781550024826572 53.819953129235742
-42.229465442616132 96.128381772054027 54.348420529030967
-37.463035399053062 97.415366533989697 53.744588772614556
-32.567990188512567 98.758419804353863 54.558965892200739
-27.774649037300208 100.336307077399312 58.342120349236133
-22.925990602072726 101.562324924660487 58.299782726471150
-18.062050866138371 102.802234877619398 56.385905294706760
-13.139314688464079 104.143512718497021 57.522403651788132
-8.392180828711572 105.390781083588394 57.906685590288049
-3.560191227258318 106.624008558280380 56.751800164832972
1.253494846022583 107.776340376841063 54.564028218292179
6.160387549607208 108.856267291929072 51.316452985979147
10.913358733627287 109.913757074953438 47.003849558793966
15.964117127897495 110.676514795054175 40.913376256817500
21.086989395018357 111.094341833641508 25.566497443740353
-103.716191719916338 79.097438222569266 36.569686995671631
-98.946499527673581 80.865357110601508 42.227479984297659
-94.152126187467246 82.481376506477972 46.649045416273616
-89.414963753164557 83.891284084602276 49.816335645249680
-84.545810213222225 85.313924775628976 51.680157996039576
-79.848399851200810 86.808598713418064 52.486900353214814
-74.883041835424535 88.019600180695576 52.825564873723771
-70.110025447494266 89.255795014146628 52.588628085437229
-65.301647154716193 90.631770942400095 52.043634733556402
-60.356248570481796 91.810052230180460 51.067580383920102
-55.622217424451875 93.042573212907456 51.765087075674472
-50.790962679597058 94.537172118996622 53.087320717790568
-46.003902180938134 95.919033958004093 53.807727460364440
-41.154215177157930 97.200295782598786 54.317217877947634
-36.255919165290784 98.462881173309043 53.952039403846463
-31.491600334150490 99.777366568886137 54.387788203013642
-26.770914543293756 101.058962733464455 54.834973190647666
-21.791138532715202 102.385278152741805 54.534983759949959
-17.070543854046626 103.758332805578590 55.590694810951703
-12.292492222581991 105.180092658737152 57.672087200367073
-7.461293070804834 106.436106926937441 57.406204106476984
-2.537158332239333 107.513865907887507 56.038780904256740
2.316606750016241 108.759394197521075 53.184515669134981
7.173332221508751 109.809137427005737 50.091738839305968
12.164092892635420 110.764854551289858 45.399788945231620
17.102170203040252 111.666340579989537 38.337091627630869
-106.880437789591753 78.597197106945657 29.492242518385037
-102.265554261757941 80.343365775450309 38.711096376885209
-97.331995934797320 82.172996771417786 43.706016155343299
-92.571858480993967 83.612750458877827 47.687663060490728
-87.986264413651114 85.191568620512371 50.235320050446091
-83.060111728194400 86.423223829134443 51.934429236193516
-78.274579384208124 87.759602774883533 52.595318650615361
-73.462439875135786 89.100409052979131 52.168883915958084
-68.590071490547786 90.299242381251162 52.097336426327317
-63.747228035053411 91.718053985029684 51.883013008641079
-58.880377122389199 92.885008176404170 50.929472941089131
-54.124322673224960 94.281053463589487 51.774116499615992
-49.294923462012804 95.627297668272561 52.889775777441805
-44.401235714586903 96.939773820371755 54.035707540036562
-39.691073428791960 98.208392907796480 53.520973330334527
-34.931938241341413 99.524364315354944 53.456601660620045
-29.972546651133470 100.926291089991437 53.975256643260565
-25.190264629232004 102.166410209587170 54.024863028647474
-20.442727727419371 103.470197496807046 54.511928478807597
-15.523878664869031 104.804559250608349 55.858163008513515
-10.700508825902856 106.266910569053650 57.397003072734464
-5.967059055816934 107.437221105635416 56.731295943797264
-0.995160751885674 108.603757947327921 54.765469730853077
3.881273467145512 109.821751536843450 51.614052042062369
8.655692814233614 110.815151485261822 47.912529062375931
13.729987197900954 111.840041158239757 42.801624076084892
18.588480938462308 112.617000969991480 33.915989465474013
-104.494832095781817 80.324926509562175 35.203946070180663
-99.758752402118972 81.975265157777869 41.333247105021577
-95.003757539367228 83.647455406848906 45.927106794809255
-90.345407848565159 85.147843013329293 48.985471590869125
-85.354513914478588 86.571931845565871 51.097787259865093
-80.619498819814822 87.883074100954587 51.961208623106501
-75.665402557881507 89.086498343826662 52.366081702104957
-71.012673920054823 90.500474335806516 51.507414442571395
-66.146233215890575 91.901323106781078 51.707939074413403
-61.226344092867038 92.991055050890495 50.815506125149390
-56.548712484268549 94.233072868558764 50.953639889987578
-51.673502138713928 95.690969958743764 52.143011026931632
-46.851803128689568 97.033962620481972 53.036299607319769
-42.000046469576610 98.218036112377547 53.843100131539046
-37.168259992089475 99.658265469604629 53.929798347475263
-32.389611324587229 100.972656856733309 53.924158463253825
-27.577358697874843 102.104187918567689 53.793716876383741
-22.721928926085223 103.542079849266727 54.133487015037140
-17.794760269740895 104.862829216632164 54.185406997924687
-12.974910181151692 106.206945481213253 56.407760657095487
-8.332974603626486 107.618970102106957 56.862320317820888
-3.308144190559318 108.782390340452935 55.350474748849429
1.417155211911435 109.851189398469785 52.677283153141182
6.374833123486571 110.919271889124232 49.340244044656728
11.212248589864338 112.030877199535809 44.969813435399573
16.098385857335451 112.976890768050723 38.449976972025269
-106.760025756387762 80.078370213369794 29.210148804572903
-102.041352120722607 81.999390262149035 38.657978784621363
-97.382934157576543 83.566196576854040 43.650759077568487
-92.475679544184885 85.196944032699776 47.612898429288940
-87.729709844844592 86.505373077311049 49.911973034210668
-82.933559753069758 87.849675141412007 51.547017069139123
-78.168210022224727 89.299449730081378 51.990730286443750
-73.383123073868461 90.440732314978462 51.373355526934603
-68.469851765985666 91.825376552318801 50.849030170106658
-63.707772914461572 93.039281378439966 51.516310958675625
-58.801313173586550 94.369647820877702 50.314428326659495
-54.060258975617558 95.590604923521553 51.356015635441601
-49.219709462055448 97.138024070633875 52.323364570275160
-44.309261237794544 98.403240514702489 53.512929725207727
-39.551540213311213 99.817888782956445 53.448589841680082
-34.695127248323232 101.015902582188332 53.559136723003384
-29.791812090834355 102.300374474040083 53.747932796951879
-25.101180765963594 103.657165960491994 53.982882112778803
-20.190988901447543 104.874551842177866 54.072749540190770
-15.425602658865756 106.243719739612246 55.070110621550327
-10.599745076739026 107.660274852831904 56.527366504012079
-5.758869998444199 108.951051045276031 55.807698482764557
-0.906680208052492 110.028825534797946 53.493779672193781
3.955006469784163 111.177660201717075 50.055059110008507
8.907006681422363 112.201001539981505 46.504619754045969
13.895106485355598 113.269449498352913 41.158345125767852
18.751693371888948 113.735655389975179 28.130581141104894
-103.913312392163803 82.157456661196505 35.970727991037506
-99.153563116492450 83.609714774610097 41.694037612328970
