ply
format ascii 1.0
element vertex 817
property double x
property double y
property double z
end_header
-26.665629324807178 101.001274479916418 54.760456196580044
-21.872177429506756 102.269143981472510 54.508826031300934
-17.043071453169418 103.672849728132945 55.706267127554767
-12.263720782989502 105.186065707620827 57.511613074286949
-7.384584618998398 106.455061965065539 57.442347045778469
-2.559148910360012 107.486385717585392 56.075384747601852
2.295965219946588 108.710738369241170 53.279159927269923
7.161135692695041 109.816863105474482 50.243241447552343
12.073924095927264 110.782302709077925 45.404053797112830
17.122622423266641 111.619020494232586 38.069717305882470
-106.874885336527342 78.554631753410789 29.386672920792773
-102.243996399015160 80.488029695185418 38.834968422179472
-97.464557083539816 82.263960873116133 43.739384437355916
-92.784056345862552 83.590463159389614 47.614357281872088
-87.911629855988423 85.142850401440924 50.212830216761311
-83.046443144891299 86.558614341154396 51.932528988320669
-78.234684410410196 87.831211140652940 52.567569207787969
-73.409721580187423 88.996576752365058 52.099128950505076
-68.691217020825079 90.347428744613538 52.222532938879134
-63.796233504448892 91.649275287205171 51.940018612347103
-58.920855304708354 92.937669549739638 50.970738068646675
-54.091363878934168 94.245585586497270 51.765649656488677
-49.335712667981028 95.610939967811447 52.661412038382203
-44.498435559128879 97.027429329892840 54.072355160904195
-39.637099613190095 98.147512414366588 53.483700403717165
-34.830625013087463 99.493979298507981 53.533743238430425
-30.024869338240734 100.941179261175932 54.022556606117575
-25.119291632984357 102.179378503993419 53.988459090567027
-20.507450251530951 103.493700762699234 54.488883042501413
-15.594645169405876 104.931837353293062 55.907422496359338
-10.795417677833987 106.283934057598913 57.350123944719961
-5.798366457148973 107.392511493356452 56.743845435764861
-1.016517983811998 108.667967784829187 54.793065478798226
3.950119492082816 109.823058094387960 51.555758187475725
8.816660092029629 110.666209722564403 47.866098148642820
13.644149993907259 111.828906494593610 42.837616594433605
18.558976904450969 112.600927066228095 33.989472144475776
-104.442440263051509 80.250431378344075 35.262763708891782
-99.765030943467522 82.077362890593960 41.227676051337276
-94.966706375847721 83.640416931021051 45.916230977185933
-90.221076039396948 85.112382289184779 48.979578325579794
-85.404325075066609 86.539178861400188 51.080930090110137
-80.608697754479863 87.860885595386577 52.127284486301306
-75.872269024728865 89.236099095602242 52.277760064796887
-70.950403283724768 90.408895722260581 51.486233655060268
-66.046788179418570 91.749475909900013 51.802377529253945
-61.320436293765056 92.965645994714038 50.780775511477600
-56.320545910419710 94.380202799252913 50.901149186872232
-51.759473793880929 95.634514274336638 52.240598138289073
-46.815582488471719 96.926311979481213 53.150901146362003
-42.026715066309421 98.309486517477751 53.886396212198520
-37.049721975979878 99.685272522470086 53.936790349737706
-32.336699727829689 101.071218565255364 53.892914630560107
-27.598770363397890 102.125918001496274 53.760938228067999
-22.773583002768714 103.488164115117044 54.170103779126414
-17.839143258006146 104.800540158834636 54.230411325713376
-12.986263691599319 106.307307052744903 56.484711834234147
-8.269553229755751 107.587327158479084 56.836516072128013
-3.461254739323991 108.755401631195951 55.348673396772796
1.351599884246358 109.904015738694014 52.830638823915244
6.412925975878238 111.166272786551829 49.555523847458893
11.265532042117499 112.060696268834420 44.996457382861351
16.115981004593266 112.966982692111685 38.642139981074777
-106.794212324010317 80.238399899855921 29.080249821744825
-102.109185066513078 81.915826339757899 38.579160946362748
-97.323215878472411 83.580539865782782 43.621861558012661
-92.574920688489698 85.170371969724840 47.540881442449852
-87.855397383012971 86.579616167267460 49.822061722782209
-83.016329077895819 87.980216229997438 51.552453600374172
-78.110760942413989 89.306121523204979 52.091147642550062
-73.241175281784109 90.590080956849050 51.264284743803437
-68.587592317833000 91.824273111538318 50.904789640165980
-63.562971288687791 93.136236183849462 51.646295131366998
-58.788999848492210 94.422900836455696 50.265557820244837
-54.095919855944715 95.664184642020544 51.228575450557017
-49.134124831574944 97.077661689480550 52.301876609302965
-44.303356327028510 98.388426932870757 53.510634119921761
-39.492127715683552 99.730621601919538 53.521636584270688
-34.743467694159875 100.970429638349131 53.624743003406408
-29.823085178119740 102.261550405745893 53.652985249174343
-25.044835310410619 103.631954313597333 54.023575258975264
-20.321384374964595 104.855780379226118 54.073739306972286
-15.415151185165630 106.314898906499039 55.008042505181230
-10.650355039965376 107.537857927773800 56.562702346432424
-5.784938795430692 109.031651602788060 55.716569385370185
-0.877337943370300 110.069962699739420 53.519176521199363
3.997170961791465 111.114570199487687 50.265335170440508
8.897246098688903 112.307378499445647 46.560571953033019
13.854315259943711 113.215673931385169 41.128134725239178
18.871091986779618 113.753595104994474 28.114407260901842
-103.950554720929503 82.084320926960260 36.040263587244603
-99.135186754256068 83.751540075179946 41.624949513912611
-94.429232337687182 85.230450693255463 46.293842981766140
-89.659784500620333 86.784282842212804 48.739631677217112
-84.830385302257639 88.108929853360522 50.731617937731968
-80.023079491532911 89.405880535275912 51.585016247673998
-75.125005762788703 90.744590701257295 51.536674238279879
-70.297837951387081 92.153466135410028 50.683101992861687
-65.564660377983628 93.405100466445333 51.612438934883805
-60.650915388175363 94.506668588953474 49.921806113485900
-55.931525729430462 95.879802616197694 50.287658845994116
-51.137407473463462 97.323430165364570 51.596219921729997
-46.122548132839000 98.676388950456143 52.688727346022965
-41.417062894427190 99.934797840839835 53.148758332602974
-36.597030231515987 101.263076541821462 52.966483655645696
-31.836043808548510 102.576395327512429 53.629940830079640
-26.956608147903225 103.859478834467893 54.048335592013323
-22.162823986396432 105.082221784131590 54.146187984611984
-17.158051103131953 106.321775639096174 53.539955408775988
-12.400840325364499 107.816172570269401 55.384134350553580
-7.592800215782304 109.123364685743951 55.535618258000014
-2.704050570398771 110.392661986265637 54.055874275201369
2.072036441568077 111.416423269185444 50.801141002835699
7.086212731225462 112.498376784290315 47.143633930923471
11.941671721181073 113.631603284613234 42.981042602713373
16.923106008052535 114.491357690250851 35.783180256949720
-105.292025104317403 82.328417844935487 33.095143720267799
-100.546468261751173 83.910616830325466 40.085058053121557
-95.780468280033318 85.588534260146105 45.062372654461235
-91.088262502335837 87.022443881648982 47.890408945808531
-86.194124767292408 88.497973525686518 49.900829986928343
-81.445032222961231 89.765629646030447 51.075750159881466
-76.573425765595033 91.239951755416357 51.586302258548947
-71.737932843782545 92.347523324285092 50.355278297293637
-66.923016912347634 93.666196310477815 51.217140706702864
-61.937695725319671 94.978722087991571 50.387239653151028
-57.192361452560007 96.203064122348380 49.673040743780369
-52.292922182856245 97.536601199053635 51.188012743850052
-47.618808326654232 98.887044743055782 51.921499684160260
-42.810656615053333 100.280565858502655 52.900654149422380
-37.971715761096249 101.568550557705038 52.566954493198367
-33.136294744402768 102.778536932502547 53.546170328450003
-28.298585547508019 104.304471807221859 54.105823026735990
-23.495713867602824 105.634937577669177 54.203117537467094
-18.709688490281245 106.700716220585264 52.800143978720904
-13.858487065890039 108.121635359731101 54.210097403812590
-8.884601824400377 109.550584523604314 55.002043703369992
-4.105967367561625 110.691462054949454 54.110267075665057
0.669004896112504 111.871024671584379 51.413450334857622
5.559545732583114 112.925644245062415 47.791478098356201
10.588594723128239 113.946752317440342 43.724289255387035
15.336993531366218 114.939342880532564 37.608980441886857
-106.252311176173990 82.536606190792000 30.151205189852007
-101.484249168215129 84.420724180813124 39.062455306426997
-96.765694230540447 85.913643227839160 44.160914037798769
-91.782449121680926 87.457054795149489 47.528402565887220
-87.058759011247489 88.910260155502229 49.283800881699186
-82.345995820779549 90.299620270416355 50.572499397860490
-77.465572277806785 91.699904287824651 51.252461507600415
-72.705531602803831 92.841087364347814 50.525329246091502
-67.774741110639013 94.130525159507116 50.743725258833734
-63.020739426656576 95.475521939632287 50.590003690147086
-58.193238981556263 96.640459739015881 49.112201837916395
-53.331235238129921 97.988185951941475 50.492288113787353
-48.510811714747874 99.268139064636628 51.307818149661585
-43.751371465762261 100.776745587912387 52.829289269781199
-38.832781513356572 102.115325197419580 52.558685328582875
-34.007668808793035 103.332405841855604 53.414632803833527
-29.183987500425381 104.729736190986131 53.869616956275109
-24.378567914247139 106.069180009961272 54.287360859352162
-19.582251082739916 107.228873344811163 52.771016605417508
-14.677809102026373 108.504609131646930 53.011408892481363
-9.937019067250526 109.946085313973910 54.476223229543919
-5.030508303739833 111.149668273103188 53.643440348131449
-0.299889367756922 112.265939527429779 51.486479386929695
4.627392279386676 113.427588109156090 48.035912721191885
9.713688672526228 114.479348128818671 44.182260344099021
14.609178602465480 115.410415656787123 38.321609144486942
-106.049679830819429 83.299103517969115 30.203550316402019
-101.347447890924272 85.253352297679328 39.077720922857182
-96.679521106072883 86.819416617877010 44.332172178236327
-91.861739343425441 88.423498680052631 47.538628521335895
-87.037601653860833 89.680690256257208 49.001901722775543
-82.189707142902108 91.031148957332306 50.136584919988024
-77.274038614354609 92.277016566714039 50.859691067776374
-72.552255636541233 93.657667814531180 50.129584822248304
-67.772209304950124 94.831924827149308 50.613110823348592
-62.833757119186018 96.093077301234558 50.185682130953111
-58.006501783744532 97.393196316247966 48.689011498204152
-53.231130083869672 98.708704790738778 50.254790209795267
-48.461237621465592 100.157647950468700 50.959228185438981
-43.728453564963026 101.570548619466564 52.308686655259471
-38.835737322311388 102.711229042767002 52.330168501741966
-34.022549162482377 104.112267943048323 53.238122351214891
-29.147725389792370 105.382822387939257 54.235102846109662
-24.226762938685134 106.904933826987033 54.090323855309734
-19.613971472334299 108.023001527952431 52.624559611222800
-14.600534805087857 109.089292462746414 52.329397903074359
-9.788023481625142 110.500776716327294 53.612890701343140
-5.004782754793176 111.837659685306932 52.877002236327272
-0.066351709289730 112.985268805158000 49.584769303232790
4.842491082465472 114.168062879740461 47.653556146607201
9.699491489615831 115.212357858503935 43.350004486315107
14.546579733298078 116.108795500939692 37.562820107202327
-105.579913789982655 84.311195090026061 30.817008733426619
-100.930579648238989 86.085596604217940 39.608083725227267
-96.133782739021100 87.687754624234941 45.084909891248088
-91.347759031858629 89.185782634185159 47.314355862963261
-86.480852770127910 90.499278279387340 48.894058487877167
-81.669585401353771 91.939738777818334 49.932534038944894
-76.878761879199516 93.219552283007857 50.376841166658792
-72.011068468210482 94.472187339439387 49.563495086579046
-67.172830183935687 95.759136158442232 50.402429474774230
-62.334216895787705 97.007255566761131 49.400228929078388
-57.509545572307189 98.220998277035051 48.529340916457031
-52.632809236390827 99.650002394233255 49.894242949636535
-47.890148758294124 100.963727097388329 50.837372549906718
-43.014748430403046 102.341256029872653 52.216258188163962
-38.290848939997581 103.701853719754325 52.253164030498411
-33.455013654130113 104.873870039406171 53.387740880064982
-28.606466723144244 106.339121939693854 54.079126125594975
-23.729031158707667 107.704780293597821 53.819951071709440
-18.867789383590978 108.828081664931076 52.375111282241242
-14.088349954972564 110.145445259687889 51.852433490283673
-9.386480535949929 111.430982861313467 52.915476580199652
-4.461745783296159 112.801180545770748 52.107773874380335
0.486192340952680 113.858919172905601 49.289375147412080
5.399182433251472 115.033356340381985 46.997877173374576
10.319127055507536 115.967496648895249 41.990932195844557
15.137806324084121 116.896507045028201 35.640026638596886
-103.599239956543840 85.881151121453286 35.673468282493346
-98.898507767302036 87.466380795127932 42.074644432515427
-94.173584265494554 89.117128352939218 47.060289316912154
-89.297275849758023 90.464963142867816 47.798575433163968
-84.522871112473496 91.758289112913218 49.181549620686035
-79.677953741632507 93.164011545794864 49.865874506028952
-74.826539769210086 94.388096229011452 49.814282510957483
-70.023234307433810 95.737703776572431 49.443304713252076
-65.177917261501690 97.072351439948093 50.037415929685686
-60.205906136420509 98.286546141589639 48.030604824975981
-55.527136204333289 99.576133083304526 48.714620799305727
-50.707142818771075 100.861669324771654 49.748177402766281
-45.965411418602429 102.268263485920457 51.245437211650362
-41.123829678747384 103.506313495423839 52.067079187798861
-36.338099418477064 104.953939247430498 53.016115640378231
-31.511999255344918 106.262812931889187 53.682179981596136
-26.672841659189782 107.686448082701389 54.008761892178548
-21.766505201493892 108.791436870911937 52.913963213815322
-16.893095085962692 110.108016026411477 51.577277665331664
-12.064914420468337 111.320569277969653 51.693778018881396
-7.367073888823027 112.793982263341761 52.025014390137599
-2.387078635834520 113.854492456784897 50.166469254860182
2.340511273129831 115.095385167273918 48.528500856941889
7.340516881511675 116.167374040085448 45.021353247212680
12.273767698492058 117.060884301777193 38.712325934856750
-105.771018271550957 85.520137440634443 28.455747522502914
-101.206044238437315 87.390356628336349 39.174960327779246
-96.445662793018514 89.145976862346259 45.820723481205569
-91.714556032961639 90.450326634006942 47.116281258567859
-86.879528492096142 91.951536616108598 48.374891781517746
-82.032119219668843 93.132682251169840 49.038047823866791
-77.187769176752425 94.511646972629322 49.423598054065899
-72.318625766463597 95.657593789907892 48.744579771043888
-67.512761702733783 97.205509945072890 49.526145092004825
-62.692761947722829 98.197733221765716 48.665700439187759
-57.801607783170027 99.608073596384642 47.949541116528977
-53.066913073344239 100.985449335875089 49.138577058510243
-48.185125825447571 102.411477481134327 50.210338665836240
-43.448098115548859 103.704488728390245 51.366985068772109
-38.597722128623623 105.100627728761367 51.939774703101612
-33.798562591930398 106.489175199836424 53.040565628586776
-29.034003851597433 107.653434148264296 53.886644573911724
-24.243216147870633 108.933336453364305 53.497122793785309
-19.279913972714365 110.125904853798247 52.244122377611518
-14.350466309595827 111.352322715943600 50.913734882179668
-9.644637577247076 112.794066313241331 51.504902063851816
-4.788658363934129 113.960768389158630 50.401527003204144
0.055843328577243 115.208677767698475 49.078774449393492
5.020064703386922 116.329118085994835 46.764368980180315
9.875495455180729 117.329001050993909 41.272539617324597
14.738025773537135 118.038905370073934 32.102997062099050
-103.042397098105909 87.503459488284292 36.322130652646635
-98.343637762973572 89.091300564740990 43.820812944473033
-93.581961647783430 90.766883309417793 47.485490600789397
-88.707422624884558 92.063421422146959 47.585041030342346
-83.944857712367963 93.387954475739804 48.569461483748505
-79.150467409291792 94.719696217608330 48.737301599373069
-74.240974219657119 96.035746908072937 48.962814838406395
-69.503409409714493 97.300127492987841 49.038209101758092
-64.669649343436205 98.591452976387728 49.082223186026518
-59.669090251839805 99.848112378237190 47.390080021723236
-54.958196082903598 101.182211267402110 48.369177717723524
-50.116557599147001 102.541541097039854 49.078467322380945
-45.290031801177058 103.915984652010053 50.701978501447449
-40.455317608626359 105.121431660911568 51.562931104298762
-35.651642526557701 106.513609632467862 52.710600840051484
-30.856941414805021 107.840416412215021 53.401338649456427
-26.006662555988235 109.209925818638169 53.543569028149768
-21.092619118541378 110.429094717421904 52.715696646680961
-16.324242787526181 111.639695052153144 51.122188469411050
-11.458396176075318 112.999996081271817 50.577226440706319
-6.703527720346077 114.206182169454578 50.197014296175432
-1.847091662168868 115.466629489296679 49.186168945558876
2.995604834004336 116.798687450694175 47.464892901098857
7.940955703575000 117.703027118099286 42.861439782028533
12.848224094567179 118.620952473708300 36.674658672382009
-104.316159000459052 87.854923205953810 34.250547535197626
-99.593079710994914 89.447741411057521 41.387765739891748
-94.872585689305510 91.203425668059296 47.819175489875107
-90.095710181286748 92.347431183269421 47.434285651069310
-85.334318124255759 93.607188731531664 48.018027040762050
-80.482738013177226 94.998089940551765 48.158987319715330
-75.633320641570663 96.361525811400838 48.452650231398842
-70.785996179090574 97.591887704611821 48.487438004415552
-66.026335164668197 98.943985265662690 48.668285406322852
-61.115424851464056 100.213983543088460 47.273856557158119
-56.222845522972662 101.522953403371190 47.643744566030577
-51.365980043478565 102.869427902617531 48.412390638740419
-46.661665385597686 104.194597280655373 49.961172808844019
-41.796493576509732 105.537898366797805 51.072026366573937
-37.010160744062738 106.814694975140483 52.163112334758772
-32.281040230025255 108.253124064124719 53.201591605167096
-27.448719033434422 109.417055356210966 53.257551734577525
-22.592801222193170 110.732237011238823 52.748322501476402
-17.765494397315216 112.029141310403858 51.658615746278009
-12.824575334684891 113.242231326968380 50.101195867704376
-8.071147598487364 114.579777793222831 50.389447402033738
-3.285041136486630 115.709160449005580 49.159088413329698
1.659878531005614 116.946781258059957 47.692758263078808
6.604629810693197 118.152653244474052 43.934910001454789
11.396623472195365 119.066501724284791 37.643127628235419
-105.732222735545079 88.083489343957453 30.483588033082164
-101.237371141891757 90.499021770125751 52.807354142554402
-96.362488852184612 91.794611820632014 54.386033904494525
-91.491077349443444 92.669723151909054 47.437628448582132
-86.664217107227245 94.026144874567422 47.696597767105210
-81.845626052687649 95.348511953479530 47.733598277926944
-77.066944343867021 96.671042612724762 47.876758283185616
-72.184835944181160 97.966080924002171 47.904971836873770
-67.384193260140975 99.233368350597701 48.306622240170938
-62.516429203623403 100.471174050970092 47.284502141796445
-57.800073521881259 101.769814414343045 46.952898324274230
-52.820383233918321 103.071942827397251 47.813027982946991
-48.118391095651148 104.503258498289767 49.134196617109190
-43.160290910992451 105.952759254170132 50.585773099523259
-38.488936085257592 107.191091260076647 51.634670224569653
-33.636476221058459 108.577542617496093 52.862817920506274
-28.781241220016781 109.866884159455154 52.934394527765861
-23.985170265669442 111.235393987639839 52.735114015005550
-19.120197589156017 112.479984209056582 52.189428218637723
-14.195110154696337 113.584087665740668 49.907313923630042
-9.403377094490862 114.963771612569317 50.252065013655539
-4.598246528017434 116.183252081736370 49.026485700963221
0.302350257315108 117.342229076161999 47.696000502050424
5.111122547117876 118.403396165093127 44.815294161552799
10.097065942779469 119.388664731870250 39.074766983670067
-106.143747946149531 88.493496243872954 29.190007434220817
-101.707795349673461 91.092367624355305 54.412694825227383
-96.839328196543875 92.511006548166861 55.376222394195771
-92.003763219291471 93.717794386622487 52.945009264513068
-87.144518668146901 94.745275133568654 47.488055097400533
-82.306993022318721 95.820144654769763 47.302889530355458
-77.450333058183929 97.292868756844186 47.329157417593038
-72.690026092987864 98.572609155687616 47.446938507539087
-67.736926957728429 99.877739177373442 47.692157949502445
-62.927367224292851 101.114033388806590 46.986940845782726
-58.174967367914057 102.283969448875865 46.463976377059758
-53.275473120524509 103.661495711683344 47.194807921803346
-48.437050562501653 104.977633072791150 48.264684480199854
-43.690766310959845 106.486501356893896 50.310674943000834
-38.719882253616014 107.847387230739372 51.206812747812727
-34.090394334429277 109.117499290947308 52.364851469517284
-29.219046627307030 110.525658086811788 52.729898257823507
-24.383482433275262 111.852871033805471 52.663481740385819
-19.562538372425820 113.031014240521230 52.070702694105769
-14.718296066144603 114.228858187896321 49.833610731925518
-9.932945523223795 115.440215859008063 49.855427037464239
-5.022678490050058 116.649598175347606 48.836813033034829
-0.058425187197521 117.934058540234759 47.118019334901938
4.656994561843394 119.050109637508626 44.414356806323987
9.638457747975139 120.115693810583608 38.561167307748960
-106.878614554732394 90.382933649936803 52.107294043444831
-102.081067714824314 91.791972617258750 55.198044151377736
-97.269971810650418 93.291500086978843 56.404502176243398
-92.556010576597529 94.565819546304596 57.490243804092771
-87.509130551588882 95.271248500400134 47.651244539414442
-82.718551237969407 96.411764204781178 46.910697897184448
-77.944825042623918 97.808092937627009 46.715073135146852
-73.046557083834003 99.064207250258320 46.871708112935217
-68.306235946885835 100.398335348928185 47.181884043214012
-63.253860915191936 101.656392152610948 46.545242886788031
-58.515377856682107 103.027401632224468 45.927160092186426
-53.589454001477918 104.262351452879756 46.582069801106790
-48.904016931428707 105.559258707741336 47.711689078035107
-44.094283222620376 107.196609822385582 49.753053750724369
-39.248693529403141 108.501892985178017 50.888988944939186
-34.470691508990960 109.848236402264504 52.088537499699832
-29.614953278843316 111.141173962328907 52.317977638549785
-24.833127234921875 112.376634814595434 52.465021516583263
-19.923523186425999 113.728178679832070 51.930727844147441
-15.038275158865055 114.894231749654566 49.932517639168715
-10.264720855478195 116.158542420931212 49.453626673098931
-5.514800497450128 117.330133148964279 48.352578167027524
-0.733450922363339 118.460929013860863 46.956267958171786
4.301855196995888 119.705889663959724 44.175556121477229
9.115509395940578 120.767014811605193 38.439030437476838
-108.300972709595158 90.671532594419403 51.450554465413894
-103.468799299907033 92.169654386134056 55.271096523310185
-98.771102105947975 93.555716981973916 56.859885092761502
-93.978825555837460 94.912689521266515 58.705282982691941
-89.036543710247315 95.878253336484661 52.360159493389723
-84.200818412013518 96.834164620186883 46.923951163913785
-79.195298208149580 98.265525805990009 46.110290550787269
-74.495086067159477 99.490113641551531 46.260823283035336
-69.599630270116265 100.805831787592624 46.298165376890687
-64.843992835682968 102.046305188412120 46.134942296538448
-59.822976674812239 103.372382550328879 45.500811981300338
-55.019193966298282 104.648789607068522 45.938260009913122
-50.207181196191776 105.993076144994745 46.502327882016345
-45.477739744396786 107.313722921089678 48.878373069770696
-40.628215555053210 108.808060726261829 50.059521911212180
-35.868258688167970 110.141013473089473 51.257415672202747
-31.038605014507795 111.412789684728551 51.913548527457074
-26.155499932565803 112.777937156226201 52.307463541383726
-21.367070968723120 114.108079242384235 52.048737897529840
-16.422267184893698 115.165827146678510 50.411364653479659
-11.612308940780089 116.440476887309686 48.993659749056590
-6.847510792958253 117.684348213138222 48.527650767131746
-2.060825685654720 118.879404782039487 46.931348045193644
2.774042914039015 120.154214174521016 44.585075726403936
7.772112049249895 121.123320109601792 39.435868730051432
-109.689787190936826 91.020198586264058 51.114054589438545
-104.951833929941216 92.612133122974299 56.249721224586381
-100.127037989437596 93.854954954826468 56.832281051925214
-95.285759332472679 95.313640831230003 59.417909862361000
-90.430418708209700 96.594364228752397 57.696742204869928
-85.493413659479629 97.308279943053705 47.503378552214436
-80.618109833996087 98.560296308929480 45.999236291957729
-75.796151361313548 99.815311008442805 45.653783044593752
-71.037466672514526 101.089941033825724 45.683808030343386
-66.171908517854902 102.485123256450947 45.577511781326713
-61.371839828264996 103.617588057864097 45.328397987229593
-56.443483204896523 104.956669068551065 44.998838220716372
-51.594185459450955 106.358936526549428 45.793348849005092
-46.849648583762793 107.684241557192493 47.888126820638774
-42.018092403810485 109.079633659710169 49.488927958307649
-37.238601180651472 110.476995774613272 50.832947888808221
-32.453897800912912 111.848677370696407 51.516523670864487
-27.553833938954050 113.105537081233564 52.016173907135482
-22.674532840218635 114.340234448780308 51.959570198169267
-17.959804606038670 115.531709880213825 50.843373483771160
-13.068534337380129 116.748568452974993 48.983763017902788
-8.179063214128185 118.167394896102877 48.348926721445864
-3.332008188126157 119.351263319292229 46.862822798378318
1.492434987990830 120.549779451023042 44.751596276838200
6.399525723413952 121.724282508535723 40.724782609251811
11.420417006345613 122.282987913899262 29.604991001323363
-106.702435418527955 92.834899142739147 56.139273570887049
-101.987297180642855 94.241096899398769 56.666297712403697
-97.298706075057737 95.634012808443387 60.284565444553202
-92.360669142552283 96.903119989515716 60.239695539515544
-87.390501831159966 97.771546572298419 52.174670386594613
-82.544675407321307 98.743505466759927 46.129477094147319
-77.663999261689241 99.994827648385694 45.410802115794091
-72.775945578995461 101.307201543296202 45.135573019173066
-67.949662662105666 102.631114268851348 45.058819938232588
-63.197635160567145 103.841043032200957 44.989259835517196
-58.351263281386366 105.128264296804971 44.394148159101569
-53.395796313789333 106.503747822497715 45.132679867348507
-48.654719366417609 107.759217904091784 46.200016131110331
-43.919732135136186 109.185447599481350 48.471104316398574
-39.011785207312471 110.592065922984915 49.672858909779549
-34.291731629889341 111.984586445610645 50.982672687176652
-29.424797184334864 113.222119940216885 51.336185714995629
-24.630853783331709 114.620921592000698 51.836611888718657
-19.860665194461820 115.865839055169317 50.986849584502011
-14.846547049998641 117.172514174718032 49.298898568592485
-10.072955311859833 118.231798614638151 48.502173685626872
-5.255889036686430 119.434769589662920 46.893785267115639
-0.356815201331692 120.711975688416473 44.968180667350275
4.444725299187670 121.968907116333668 42.198317382557427
9.366245703725756 122.768672873085364 35.106917868522409
-108.667993068562637 93.028478595439765 55.454120604826620
-103.779637462993833 94.425879860462558 57.420576480150473
-99.024284460168502 95.816744040970832 60.154594262609550
-94.199498224015912 97.165298836275440 61.195023589249359
-89.366390553215979 98.387489405838267 58.206825552249740
-84.398241885499118 99.046775486277653 47.251697870471368
-79.609921784176663 100.164023411873060 45.778097517268613
-74.693020540729790 101.453706708367619 44.740278701136575
-69.859719133289289 102.815883355468841 44.397334791464978
-65.152276123296303 104.164017358787689 44.681291171353116
-60.152120520456833 105.359894892587036 43.833348694998023
-55.407782457059383 106.695552639949312 44.389573001137187
-50.472307026841051 108.028792511183894 45.004934977457495
-45.761090226878906 109.413397611802480 47.505542133694597
-40.900487737158464 110.813467717135538 48.760763335706642
-36.116023114864845 112.214513123619867 50.282758807554494
-31.331748290801457 113.588064582735981 51.068166453792784
-26.483102966426763 114.839113383234377 51.574964977826845
-21.550371131112264 116.110844394515141 51.100769676041232
-16.761847401295821 117.132675472611965 49.650747075738764
-11.930667083765123 118.554276982311947 48.090695817367951
-7.070464470815612 119.790080041099259 47.250462857349397
-2.223999008158213 120.909472684230636 45.291657085246293
2.729692674125090 122.199725320423383 43.060547577702813
7.541184318906758 123.080670509230700 36.865986220659295
-110.497197733734737 93.305691843756549 54.401332335917523
-105.768235626380701 94.648077392080069 57.932229609907360
-100.873047213017088 96.120337510004262 59.333517701672186
-96.091407718548908 97.417325303741961 61.524512088499471
-91.257733299707098 98.679184467788104 60.752185002480239
-86.277912737741929 99.616643730981366 52.178599115084225
-81.483589674175050 100.669925927254724 46.470361056310793
-76.401771341496257 101.687512660445378 44.557801104495432
-71.720648226002353 103.053754202766513 44.068144830200282
-66.869354962751174 104.296415883236392 43.962760467485801
-61.996170801124322 105.624336800341752 43.799246325029905
-57.312680273231962 106.810692675685814 43.537134219089381
-52.425152196344833 108.139921648621922 44.279473957854350
-47.646102640877373 109.628711415093662 45.701903132384352
-42.829982271301930 111.072456650126142 47.820943760432492
-38.095151631220141 112.402565783312781 49.241994955786431
-33.176641464356393 113.654733585655862 50.590236897704010
-28.291334034870644 115.048777490189892 50.955098869042068
-23.590239998796434 116.307416297373976 50.980624299969307
-18.669546085667740 117.673376209684136 50.093076147321376
-13.895868800688863 118.772847992184992 48.228554728929026
-8.961771166760734 120.081939530867743 47.472414270922975
-4.140972472304863 121.229354518974532 45.541377512043830
0.672667497985529 122.372952946818984 43.303363603215708
5.568276974303878 123.571996029774155 38.801544111937872
-112.951652696124270 93.178839994373192 51.270230639078434
-108.157135383533145 94.715040983961430 57.418343754161484
-103.241241118656802 96.124533463412220 58.122062943526821
-98.292820498240928 97.514446123135130 61.650455611439661
-93.643788109287129 98.832054014149406 62.035830202339021
-88.844184934679120 100.032531905389391 58.424839711511893
-83.801719192685795 100.671578444087231 47.926417593236245
-78.873515489554961 101.909331430695786 45.784543350696914
-74.125574250686668 103.020139928458079 43.594868562408990
-69.246060508530505 104.278783780938454 43.144846450573404
-64.361379331205015 105.670019365620689 43.689058850177645
-59.518890908928242 106.930311398385413 42.770105603711002
-54.747650256367677 108.259896502875918 43.306012197926229
-49.910900232503693 109.625280982867750 43.767148460340643
-45.251720534185267 110.952174847853570 46.712625110541786
-40.372008072618783 112.395883111127887 48.312658847716094
-35.569349765693872 113.845075451466585 49.705540233567142
-30.672790832808580 115.061894458029499 50.317817261052802
-26.001827646330053 116.429465881646635 50.799575634886708
-21.147480854149190 117.617591565421250 50.085724967479237
-16.101194485710494 118.964879294673494 48.667358756665323
-11.354027392633697 120.099243646013733 47.173023926435476
-6.508774029671329 121.368441805728565 46.347969431499187
-1.674070119436038 122.504421525276527 43.799589173397734
3.142449158965153 123.638722947447363 40.918342051990692
8.185083913206249 124.580268055824959 33.046559947450589
-110.427969421656357 94.866123054439129 56.150481192761845
-105.652794790965686 96.257799525966419 58.692190902567006
-100.758943519244596 97.520212418841368 60.603410318146111
-95.958556618231711 98.983791627322631 62.394024185110219
-91.194578550086248 100.213057056529692 61.552922474251055
-86.307831415221898 101.107427196814726 53.307496644413938
-81.359149841637205 102.030003976655351 47.639597779410387
-76.456393565274936 103.242159913340387 44.013898369253312
-71.521164143629179 104.557158265850020 42.558291892153470
-66.809927550361451 105.756737055166994 42.789485115112555
-61.903179243747786 106.968164174623595 42.589980667982090
-57.072160867782912 108.278414545219931 42.424394800158773
-52.227242620119959 109.592874489050999 42.982185727363046
-47.412513321040791 111.094220349921216 44.996852473264831
-42.560151728034576 112.417376392049860 47.419870406277866
-37.892404304382559 113.792641886999178 48.536971265572198
-33.102040670225705 115.247684645953314 49.850317276225098
-28.194785543475660 116.471572306926646 50.273473921807877
-23.464813847576607 117.773787641964645 50.118718937760903
-18.468803227697620 119.069472205184042 49.116219362116446
-13.681065752629358 120.231834187714213 47.412662480414774
-8.792772936024047 121.509435070294685 46.528833647526639
-3.977339338719165 122.625152431862318 44.742425259240413
0.769047888227608 123.837483440175134 41.937866616686705
5.728219497454980 124.735302064854480 35.983938757817896
-112.265366893742510 94.980659510207431 54.587183475282977
-107.561256601974520 96.410851423082647 58.495625333709135
-102.761439022311635 97.768670364160215 59.124446623022685
-97.795069203976709 99.126165767920583 62.481857650233756
-93.100063417458841 100.467237815002164 62.574323189467222
-88.054489588303397 101.686384608434238 58.481230110156922
-83.227653213101718 102.393565131941870 48.875678999589447
-78.368851806091499 103.548895601277607 45.784389801566718
-73.404480292173432 104.778282449197548 42.482128312762278
-68.582089914422056 106.023178609525417 42.113498940749572
-63.757601813760871 107.287389753453780 42.532514369381566
-58.892830008533210 108.446383678578826 41.959119589484644
-54.184109281834488 109.861367072999471 42.160150442784179
-49.297663731270418 111.137460976120067 43.340764509465444
-44.505995661179448 112.577500127019533 46.046785683668126
-39.709435147781306 113.965701715820558 47.491764165984733
-34.936858529928060 115.400444355735331 49.156207319944357
-30.091727623724843 116.627564641263561 49.654026547915770
-25.330141773785421 118.020052169357186 49.950017554285630
-20.461878418993386 119.399888367615361 49.183890034465904
-15.592943508124179 120.501635339066567 47.695104412749920
-10.877858893795340 121.652034784597248 46.496268021430787
-6.042896906016452 123.006956705085216 45.310231993155746
-1.065071002752550 124.001206005473790 42.270616296774627
3.938789070595121 125.170660400473707 37.998285795984721
-114.081501466784218 95.018010479318264 52.473585069059958
-109.456149973608206 96.625764168020808 57.969942375062267
-104.415351513747495 98.002232801455477 59.032808609515733
-99.744463634972263 99.331116182762727 61.916985384082160
-94.995220140569259 100.740677587332698 63.162070384847901
-89.986239333519563 101.850675370796779 61.227338633531836
-85.168578287737489 102.776374383479890 51.305341365385864
-80.190495898345887 103.921713942610808 47.945057666328886
-75.363184072506243 104.947363151396772 43.124193125615946
-70.524516890021758 106.129737712164214 41.116189496962718
-65.585087046617076 107.572286725838481 41.910402273873707
-60.721464521017225 108.856189362940341 41.570380252420151
-55.998915197565267 110.071371520140872 41.623919707027156
-51.174321423170383 111.376409848285562 41.850370814819193
-46.375356831914637 112.922619091278463 44.736631789748593
-41.551972616552021 114.210984093732790 46.290140947409718
-36.761599529962083 115.543741639903160 48.259348662894496
-32.043763301552836 116.834167237230076 48.867626905158161
-27.115085089512135 118.208928146052926 49.556330751989186
-22.271641639862683 119.571193588086999 49.344799604417886
-17.444768129480572 120.755385967155277 47.892570798300568
-12.626820950358365 121.896930781925590 46.452016791952985
-7.756826555504290 123.121438066502151 45.678206340048760
-3.028783572104974 124.291271191724221 43.018691070589867
1.941509057063939 125.489996366470109 38.825717779659676
-115.472788375095831 95.259598458976384 49.698856038382964
-110.795788882483492 96.909528677667168 57.478669989862645
-105.931351006326040 98.274959891885288 59.272410704630779
-101.132089071099927 99.597984744198058 61.393281886012979
-96.328016047581400 101.052619560243443 63.274319698403012
-91.410859451178496 102.315218205218258 62.303236705798540
-86.549011041814794 103.302755530372124 54.983261855166582
-81.648621510803778 104.308472171622981 48.878548122239060
-76.717214245075070 105.412267130857686 44.768121934523890
-71.893577649564804 106.621927973874563 40.711438390722208
-67.092358333159353 107.765624076752161 41.030859829577736
-62.225299343184432 109.100326390219223 41.161744280147261
-57.379970473968271 110.283499372433027 41.151128988002867
-52.551821035124860 111.677786855466508 41.189165312854847
-47.719186006311944 113.019566792965904 43.279256660268935
-42.947312225101150 114.449491722882669 45.576720729233671
-38.202898957035508 115.865543561465898 47.558398033839921
-33.348942801262460 117.217122977132888 48.155187031595666
-28.464156441277026 118.581888829355051 49.110833614510945
-23.647006178665272 119.776553729834248 48.812338047297850
-18.839067240689573 121.064671401323849 47.873540400006263
-13.965731739389390 122.298740243708309 46.513210913415818
-9.264147077166747 123.555349857548535 45.406447091000381
-4.343274805344173 124.711290876539522 43.496616240845896
0.525551691988429 125.800503124459468 39.363033060438198
-116.160059510866361 94.676905149227892 29.406671706606552
-111.691105063968593 97.291329298572009 56.753308428458780
-106.866694676390949 98.775519657175380 59.423938979643431
-101.954880974173832 100.119319659145177 61.127829577819419
-97.272528014748360 101.534423073215237 63.173119143947439
-92.409378423006189 102.801338675916611 62.675442917601607
-87.539301162878218 103.953201183822756 57.324366091177922
-82.546306010056867 104.894801942169863 49.583208984440866
-77.684225675807156 105.944566433225233 45.729294694443347
-72.819740638288991 106.986436687995507 40.833379379159929
-67.989760156329609 108.298836846238260 40.160777346406221
-63.133134280999514 109.559431063225603 40.781894044120442
-58.297158415849964 110.953523021744886 40.582568519447321
-53.545758304741469 112.153145150816485 40.274972055239616
-48.668146646176112 113.586143003747921 42.257609556076567
-43.875681905404939 115.045443539820425 44.925461420432867
-39.060125527628699 116.364513682633572 46.858862436025198
-34.147304258575822 117.614944855632132 47.550167955303507
-29.483098915745430 118.969114123755375 48.521222749672290
-24.628021317263887 120.428908416431142 48.593070685423982
-19.815965801546977 121.507898115544236 47.325424237650431
-14.876481231747412 122.796356158168877 46.350729241348297
-10.063233257135211 123.957110469427491 45.055298262227403
-5.070363087743612 125.279432677676411 43.603407110583120
-0.231570079659328 126.278034211344931 39.154981665697647
-116.615893561737153 95.411626707313602 29.163022119201081
-112.026434484439918 97.977110871841575 56.689439584493392
-107.279969326424123 99.440049315788144 59.201010087767969
-102.324523787186166 100.833621264619296 60.873776878321273
-97.586643286017846 102.177449934548349 63.422714361292527
-92.829730232835090 103.399886831784102 62.936761711759274
-87.824494964537777 104.619904666208100 58.320338302664908
-82.904512989145786 105.531055893940945 50.228325911496263
-78.024878936115130 106.609551601339305 46.383182180664257
-73.273463350312554 107.552777214497112 41.187027268960122
-68.323036078408720 108.868759927463614 39.446315014651972
-63.619614191219767 110.243012662987013 40.415971265002696
-58.685356065095547 111.376533039580423 40.013826625589857
-53.984892794326520 112.695869427459627 39.423905987342202
-49.042672910537775 114.031379556449721 41.315688293191315
-44.342895560738874 115.418306761665036 44.258099668974033
-39.430974648702644 116.948613084971740 46.344175274821275
-34.608817647135751 118.306731987696068 47.256736229469404
-29.745651388596883 119.516966105837042 47.912489896193527
-25.033562494135769 120.883802801179783 47.943871758548774
-20.130348378407476 122.051237360420174 47.014035450158218
-15.246502263591260 123.484096491510570 46.079479747433446
-10.423706426900534 124.761959145172725 44.890272393623235
-5.629343472814977 125.815165938384339 43.114438730236039
-0.796967937504753 126.859035562912595 38.536061219383512
-116.222898708912339 97.239802793875725 50.266229889843700
-111.578794701555935 98.949639704794237 57.392203320228894
-106.804022177986099 100.240913612796533 59.279497810281534
-101.953432579367941 101.713375442374684 61.530524568321248
-97.066051892653718 103.049049061081078 63.605018921465351
-92.317844376688157 104.258880164943079 62.735440965359651
-87.295264195430548 105.323646029166881 56.851811046886873
-82.383244180916307 106.275102331465376 50.081242940116098
-77.607838105085065 107.402721684352727 45.752288164308517
-72.672648986713455 108.513815116903857 39.480571506703612
-67.966002244121299 109.653201183131287 38.776704903800834
-63.006378946799870 111.023563265469249 39.843584927752012
-58.188017502442932 112.293129504757673 38.982684691164181
-53.391195630879182 113.508879635801080 38.644853116309136
-48.493055177557736 114.999091480385104 40.935776923886834
-43.841518822563458 116.412524030737472 43.932988267086863
-39.086109909700099 117.885286588200685 46.075377085401819
-34.010611415782250 119.252426206150673 47.060533885599583
-29.274115260114883 120.402094879455973 47.357927957369071
-24.483779952643129 121.759670382362245 47.158993293959085
-19.594890977278318 123.020229764045325 46.482311193992572
-14.852473415980334 124.305279025060912 45.588197910852756
-9.909262185038237 125.478186141349326 43.860835757769472
-5.076745106618564 126.740244711014938 41.911551066241685
-0.247846991812256 127.786152172831734 37.077123555708411
-115.303222964770811 98.445694135989370 53.243405893234218
-110.511354459492679 100.109172517058326 58.183975431163056
-105.717930116647608 101.254039850148430 59.191398109324119
-101.003338604309249 102.726793555887497 62.400820584611367
-96.097315845287312 104.054708333852091 63.599302634837478
-91.221354537665604 105.267104978753451 61.728746282526572
-86.314217978681427 106.160658663893770 53.480680007878895
-81.314770596953991 107.345422500162272 49.529097438192089
-76.546452433455187 108.463527474055724 44.728610263155360
-71.661597291199953 109.345150323814380 38.063034581680412
-66.766021648318642 110.663707094808956 38.231439483073572
-62.067927390890674 112.023069475975518 39.449522483546573
-57.094940389126791 113.272272141735172 37.070118686616283
-52.243363483596532 114.525039540626523 38.019290408001602
-47.497719861904045 115.942109602659599 40.884242976836447
-42.663574773929199 117.347305205841025 43.430075270659138
-37.942900845067456 118.766826379416315 45.622694383221635
-33.151270478658731 120.149571517133026 46.519568114764908
-28.316793214114227 121.367790755798552 47.063096874479619
-23.505285083042104 122.751277997269796 46.246803106040886
-18.631102394490821 124.039975339457698 46.070169176820535
-13.809727660386955 125.286867732207881 44.733009866295404
-8.861722454599896 126.380308328763874 42.940548145475113
-4.036623533499288 127.563849032435300 40.459009992105273
0.888285683104765 128.684292297491140 34.391582048980098
-113.741860057748454 99.642637125100308 55.518805873804453
-108.964110371198615 101.088641252627909 58.920944954441126
-104.141319176313246 102.424763943974568 60.371947522295763
-99.330586767519208 103.825480978064107 63.090703825870072
-94.587665155836333 105.144870029520519 63.227570924713980
-89.750249143915639 106.345289689773367 59.879272661865123
-84.796856530018943 107.358705850404661 51.713445036288611
-79.944108668465105 108.490617281252298 48.393857966498537
-75.083109980221394 109.473231524504243 43.137031056541268
-70.057896639553874 110.521947148884280 36.621067935265799
-65.246792066863136 111.863904813812098 38.133641480103812
-60.457883506505553 113.225146467476435 38.069438856712779
-55.713161273955151 114.314901555001484 36.090719932806330
-50.800055016217001 115.717146474800913 37.616474528296095
-45.997523899615487 117.142416279237040 40.935005840076101
-41.161126535668032 118.470943648807946 43.314434665565194
-36.385261351422692 119.965165424333478 45.381510474263564
-31.735857580864618 121.296705684744040 46.364329677032195
-26.750361412006388 122.507858517250341 46.148357310279096
-21.872048504493868 123.848399716606977 45.281160679009453
-17.138181189766026 125.050640830232197 45.357550322743876
-12.267401891044564 126.372132987300219 43.493248731358129
-7.408319045121317 127.468237490290562 41.682701813279607
-2.449433985737649 128.666390290859908 37.389398660290198
-116.589454178504354 99.396862257893787 51.266347671507724
-111.915428605104424 100.988132702251065 57.409056999709769
-107.066621806596487 102.431273607121952 59.495742797306448
-102.196752145681273 103.895977780668858 61.972912738132436
-97.437468427871806 105.098072158745481 63.559195675373928
-92.559397853110056 106.372753765459350 62.212932875888626
-87.615524866438435 107.418178377885297 55.781472300282331
-82.704227810253144 108.443423675933587 50.458763207200661
-77.879032192621111 109.617099158462750 46.429629278238352
-72.985025156698512 110.547421868274824 38.980687402795105
-68.066449891030061 111.777115333259559 36.373192099736954
-63.295064598849137 113.004211295509720 38.131316693241999
-58.423539654418462 114.310822845693238 36.133195696782550
-53.568044188027969 115.598866633732797 34.069938380363183
-48.756477222891064 116.929655710853865 38.099866058116994
-44.027764074326527 118.367931683595572 40.934607277373502
-39.234022805973311 119.856060878304973 43.765963703956935
-34.527930994201135 121.199761721829674 45.171713520396594
-29.539530912823444 122.519357476105114 45.913935629858436
-24.723116367627632 123.833102055129928 45.210737351868637
-19.819093982171665 124.935662178060056 45.183434389910978
-15.027262705906971 126.254890679344214 44.070172037002187
-10.265454819934682 127.476617278448629 41.266465020738082
-5.456887113404235 128.765271164815829 39.523397584130166
-0.358133121458454 129.552577184461825 30.856170183386251
-114.119711908300687 101.031294182546546 55.178002685668119
-109.399136638206983 102.486594704257328 58.649781974175539
-104.456588530795159 103.946269883260243 61.523044783143810
-99.827554053218535 105.146516159121475 63.146308136425368
-94.954674380812122 106.516266059939852 63.279646930194922
-89.958406086987893 107.706446521371177 59.520942471181144
-85.180902151642073 108.650220975302901 51.903205034443062
-80.197770675962218 109.770067562572748 48.954982520795937
-75.180334124844151 110.877792554770053 43.217634733480637
-70.448772490119183 111.791726637554362 35.300310900438475
-65.690220104887359 113.182735674207706 36.473851386114731
-60.789627450352256 114.349281367735216 36.448612734858692
-55.940218647407306 115.631849335773666 33.152538960530265
-51.166805904597254 116.989639726047827 35.059129108076760
-46.288288719637691 118.336008964923607 38.733983014332637
-41.602464567878606 119.852961324472034 41.817952047344320
-36.859992809381168 121.218370575898604 44.032985068453932
-31.908491015096381 122.566920358422820 45.230799552516210
-27.107389253780156 123.931887596359147 45.036394565657915
-22.227063339542237 125.265699968829480 44.558297213584140
