ply
format ascii 1.0
element vertex 815
property double x
property double y
property double z
end_header
-40.339848418722198 113.171859301860351 35.027297030721662
-35.275311665244551 113.051004951435644 34.459183515876660
-30.161813555975264 113.197392434241607 35.088666542504249
-25.295027821476836 113.318526134038109 36.082206547911255
-20.170510698357457 113.284446824879154 38.328137355780100
-15.214405466932778 113.381545488311247 39.783316756975623
-10.213359369466719 113.517403862749063 41.066347906061708
-5.181546721234096 113.418532443081418 41.422274746838788
-0.290677232719342 113.488822277145871 41.814996256808271
4.790820828448860 113.496248485167811 40.923043251195686
9.708555605052570 113.477527174019315 39.403896031094028
14.828552133433893 113.289730843725309 38.376342847500496
19.805281120617039 113.350792378418305 37.092664775016956
24.709528680702597 113.258109158417000 34.998187161049017
29.643470517395883 112.997779004360908 32.215270212131685
34.778548058144374 112.541935544695477 25.042190290400217
-86.962896826824604 114.432772290100260 45.521247942740587
-82.021119454369696 114.505157240852839 47.380249939417240
-76.999779525575804 114.688079459799255 50.200265658430496
-72.038038990751531 114.770968927092554 51.233654574529936
-67.038741583571394 114.555068940897598 48.156628370066372
-61.984178312298155 113.982198375310745 37.308832960643372
-56.895486489736435 113.811647763394490 35.762948578967233
-52.112260997814687 113.880740906982297 34.768744872764131
-46.965902472579536 113.812970079140712 34.467812855769729
-42.023391225739580 113.836026346664767 34.644593001315215
-37.011530456595501 113.789915338846484 33.708963391681266
-32.027179641206388 113.954172880624142 34.367403197167413
-26.938360438139036 113.945367613104551 34.982801310131052
-22.065101390342807 114.098709278770599 37.512244335562904
-16.999381261507075 114.136760427330572 38.837576364908770
-11.965013727942720 114.154240002118030 40.387205103839293
-7.152345307743570 114.216385361848353 41.027566835756105
-1.933754760410770 114.291101621797338 41.637803297878818
3.012145725194391 114.203642427116137 41.129611402959469
8.056212236535975 114.175130107352359 39.736279322821474
13.034829544714597 114.050829717882976 37.963618060346832
18.020317224137742 113.901614484470812 37.189035020014614
22.950033746234823 113.886105229533285 35.266181980907028
27.982502264284769 113.680379543010162 33.060526538425776
32.919084609265369 113.461863017789170 26.927431848798630
-88.834805607178794 115.021886623940020 44.383133892817931
-83.673413066795817 115.299678475054279 47.974387523015167
-78.677123895154338 115.309143513764695 49.342118908198309
-73.671850948704432 115.464078222736489 51.588005261459678
-68.757845549537592 115.475591139482987 50.885149004463692
-63.701267991431628 115.011877321538535 42.236809076999279
-58.827331999877579 114.739399906063596 36.341962107813075
-53.745823172280438 114.574806987621201 34.534056686863224
-48.830047921463596 114.522395820051727 34.136368496269036
-43.738037511553870 114.421669014292632 34.040519338146972
-38.787201462708232 114.580757334442126 33.763744389010533
-33.608510718409349 114.438586587043957 33.487826201378461
-28.678671932838700 114.457447497713872 34.153423693986717
-23.682548694789233 114.666165699059306 35.710394080115471
-18.724126117584238 114.794088774864932 38.025654948017198
-13.755402922428555 114.795736474328038 39.333865400211941
-8.841649818607047 114.813846233830517 40.468454582576278
-3.781998434049449 114.860896837961221 40.972634861990187
1.267007402017697 114.937019555300054 41.000482230931510
6.244574403158754 114.817251287788295 40.097142447393907
11.322070326660421 114.731039190612762 38.248039042558169
16.252814835055236 114.725339613387931 37.387703596638623
21.253607893486187 114.591382970666317 35.474555572345963
26.342547677021528 114.463504772645038 33.308193971494035
31.231497416402110 114.186534867641711 28.764479071571351
-91.020619127655834 115.532983293721657 41.263489981348435
-86.019333386551651 115.922382059819810 47.394856856912760
-80.957147444546720 116.004378173848892 48.056171509949863
-76.072754950638725 116.040961111893424 51.564271992623674
-71.027567483222455 116.181639339035613 52.072370772805002
-65.945344905850291 116.051596938037363 48.508212436170560
-60.977809722672887 115.457893805517756 37.930707447403854
-56.004415079090933 115.430241458236807 35.720979976813659
-51.004322712952742 115.284971297266267 33.757668465280332
-45.903715184025884 115.090080651173565 33.211640880435816
-40.882312845547503 115.198047947980982 33.676023121662688
-36.118077826212492 115.222231583644430 32.755884350879718
-31.057185433341100 115.182451376586940 33.352117147340437
-25.956143783054774 115.208463285261800 33.716221724619565
-20.989798652615658 115.383259189546621 36.678784495198634
-16.040870674793357 115.609387559086187 38.214449668322345
-10.916666255876400 115.509379456389539 39.655437149160335
-5.904680649965000 115.595433151148384 40.143209956628148
-0.968781690015564 115.654042147837728 40.769260914494311
4.066630422769229 115.512689288822642 40.167147806239171
8.931123704042436 115.511710472687582 38.709484766999324
13.948730443559921 115.389085859192534 37.194711488716976
19.029761088617473 115.407885082622286 36.540612489143101
23.950362406283830 115.274349175060422 33.897696360180042
28.923938425739134 115.101158726352296 30.895987255316605
34.005954221232166 114.655203874763870 23.057576933832642
-88.273817161999361 116.527668889995667 46.117583323158229
-83.170323206786065 116.713993004372298 48.578867555287296
-78.237997878659556 116.770221634954325 50.449479705336010
-73.213588916936885 116.894383650375715 52.454625960752381
-68.251830769024679 116.676398225067345 51.575693327085389
-63.368265826336120 116.451230553807619 43.255535788592340
-58.260126954941661 116.168607203930961 37.661270315689436
-53.222457274976762 115.978979186321070 34.006941590305210
-48.283673722879747 115.938822920367173 32.628330680471223
-43.320976897660714 115.869722507170763 32.834851561043791
-38.185560161389418 115.983416195284789 32.562778277735916
-33.249321831826762 115.887318906923255 32.461436666745598
-28.246034771197337 115.939227022271368 32.958448628746559
-23.340811703412299 115.994829029403633 35.004458189131164
-18.223859723609614 116.169111542681392 37.341143227900893
-13.293580986679242 116.230273620515419 38.580656592808360
-8.304064528147048 116.293447130046616 39.752829941394310
-3.274064361174867 116.289031234285801 40.219603737004725
1.781518277511940 116.287635999002845 40.136684085422715
6.745939650557229 116.263243066476903 39.180831729546256
11.722436724219889 116.133056567999105 37.453469248920129
16.796629208683704 116.041594027806028 36.640333268417564
21.832222026238846 115.951118391098419 34.722277489078053
26.763512439475239 115.865106117113555 31.990805458793655
31.662532278289717 115.553245082054033 26.041431790665985
-90.006141092882913 117.247264297295757 44.534688649686800
-84.975672415964155 117.446196654212699 48.545613274905470
-79.876581837601435 117.430122376271243 49.169853761840251
-75.083364453021147 117.503819072637427 52.576146785309959
-69.987445000795489 117.506366493352601 52.551917227467044
-64.935992319671897 117.472439071093902 48.465561046600897
-59.989927150016499 116.928530496246211 38.818679205664537
-54.986563078228890 116.750784467370011 35.738808632983002
-50.012677604184759 116.628192288869514 32.442143241849180
-45.051598752869772 116.586998231661184 32.080821266602648
-40.036749135406545 116.548476143134209 32.454418101678087
-35.107999891243722 116.662114168064235 31.969392999199396
-29.934426631619839 116.522626601262459 32.332722718557633
-24.960376829723529 116.660695563917372 33.287883037914696
-20.105286239052258 116.746143676069721 36.101790922197225
-14.957767974395662 116.773752364924874 37.563547648160167
-10.028418097686558 116.924704874851173 39.272207147823842
-4.978781720577488 116.990493205902496 39.748088160491925
0.037881869332327 116.985973688938742 39.975305453008957
4.886737205539168 116.951645898435800 39.240884823301535
10.039359959638759 116.886465114633168 37.546867711638818
14.912867252870361 116.866722643116361 36.584666179588829
20.098553104108547 116.728158339550845 35.438515620215512
25.004082842828875 116.606027737497968 32.257513918962324
30.085215134467088 116.352195729917185 28.039374660813120
-91.742689328165667 117.830772240673994 42.438191252760383
-86.807401310959634 118.178791458298278 47.931900300651499
-81.723553418895747 118.022585758232125 48.897956256851685
-76.697594763607341 118.243495447327987 52.085830759865061
-71.837225987838920 118.246932879287968 53.110042524910604
-66.635875164488766 118.197644617711831 51.248183832599999
-61.779926185994611 117.643763870174780 41.227544034875955
-56.722950611327171 117.536015866707174 37.998289427033541
-51.811613176331932 117.297951056443992 33.051270746719162
-46.796062747060375 117.210704038965858 31.183448824469647
-41.767918122324211 117.260230909833680 32.007298328009171
-36.730088680218969 117.285914466405657 31.541141743273915
-31.823559125396219 117.210961860694724 31.547993864389891
-26.726830554395974 117.341292530741072 31.781195901559219
-21.750395414353989 117.437383511372943 34.750350933670930
-16.679016121045127 117.502700908483831 36.333377566956536
-11.841152347867519 117.567848353513185 38.195248459507695
-6.733596285229880 117.533512152299011 38.765400255955448
-1.810818743982124 117.608622415839875 39.554685237895782
3.257911559296223 117.734408703785334 39.166116613760785
8.375548033990931 117.595482308157287 37.990671670175836
13.367320798727514 117.440216071842855 36.552826327525430
18.123449128782955 117.452868663868188 35.652886283598413
23.363287053492670 117.382124976704418 33.072283921249245
28.148842291157568 117.173979903561900 28.874418563288074
-92.989552966124506 118.241166415632904 39.756052374873235
-87.914688989679448 118.814437726289881 47.286240390840206
-82.928924059441655 118.772927488997880 49.264547517613032
-77.968033773792527 119.029346676670343 51.457325854873453
-72.997946878083113 119.002503540706130 53.232179177465191
-67.879483061810816 118.975926466642363 52.302676788369396
-63.083097104369237 118.753308984920196 44.995546978839315
-57.983942080753266 118.261335437231395 38.798488318686452
-52.993481690026918 118.128046366622982 34.668724798067146
-47.970134922270503 118.020017899037697 30.789658658292893
-43.042076105160945 117.835014567567640 31.017532587618984
-38.077670469446574 117.868795058013703 31.292181511426627
-32.963568275505338 117.922435437846246 31.086120391221407
-27.993854501010095 117.878387287474638 31.132452097093491
-23.091888690824394 118.102429740407729 33.300200459054174
-17.978585647026105 118.141243319525614 35.671311155260774
-13.075608901164209 118.211237300241677 37.671167016888894
-8.025020060330073 118.314235641343714 38.176123934245027
-2.921033948901627 118.383680331394530 39.038959630312526
1.937654223892971 118.292420026163185 38.915694860268168
6.899435101424896 118.346661967774779 38.034995321140272
11.927836158313401 118.275759646003650 36.471490382076695
17.007334168570889 118.159747886955415 35.372750681531791
21.924189282976506 118.069360864832021 33.420592824996440
27.045897849233288 117.900414501329664 29.415636593001022
-93.893933112110005 118.116074306926407 19.360156306457757
-88.798023824081440 119.397897367559025 46.695944720253934
-83.694138991504659 119.451610714943016 49.394007885339050
-78.694006619784275 119.592373543047671 50.948427156950167
-73.782694517608675 119.699358353577566 53.249708693180949
-68.690924546694347 119.732972313846417 52.625642044367069
-63.775199721316049 119.383855577324908 47.407547458693706
-58.759969657351164 119.203101762552649 39.704093228057729
-53.743498225112361 118.881071243877429 35.606227988638253
-48.810418916806107 118.643066517655214 30.999747102317642
-43.807492237018543 118.541957752941968 30.157509279189252
-38.750932641733783 118.570502244015927 30.768610060937515
-33.725605886204455 118.619046234820644 30.527307586038784
-28.808336980949736 118.688564500655730 30.219265867105516
-23.821323268501903 118.573317492520928 32.214757326545744
-18.720103587821043 118.886604047886308 34.897388176181458
-13.679991154606260 118.950664859633378 36.868772488362168
-8.796458636359020 118.915220723611171 37.611916941411103
-3.754875309632585 118.946469500992890 38.596998509371680
1.312143439805290 119.069071372080273 38.501180188736249
6.295833880853048 119.030290789133176 37.445681382502670
11.194956593297569 118.955937490830379 36.388611696907233
16.186436275869156 118.731902147649549 35.099858227018920
21.243751826165987 118.792029812294174 33.659996243731975
26.249476132188637 118.623908795137226 29.077889123611779
-93.905496485001322 118.912632443214278 19.306449460295546
-89.055416460975351 120.132140151664331 46.745608151302392
-83.964415721374692 120.195154041526010 49.210093636497838
-78.933431981901151 120.279407945797033 50.931945533058098
-74.070498819005252 120.471071631708739 53.399463356527839
-69.012804674042400 120.363068354271988 52.846424179515452
-63.970594398403684 120.318072492888177 48.376291177257656
-58.891738844983479 119.816465721120707 40.258025953774215
-53.957861225866289 119.590843052805340 36.307592621212208
-49.075499936066592 119.280665521459298 31.005617234037942
-43.992053826922358 119.370435749013481 29.504313867181210
-38.997082363548344 119.308655125322801 30.300186609957876
-33.951088287316118 119.292344683498442 29.897019313540714
-28.987808721745271 119.300959707975991 29.396840223601522
-23.945488656985027 119.432307378404019 31.284946222669458
-19.067348281689913 119.534279957761640 34.282163076554824
-13.977322363764772 119.693675570589718 36.235595408469962
-9.054276167695352 119.679026732728033 37.236286809879836
-4.013818921951625 119.917784505076781 37.876977340359481
0.962211449570238 119.697622084365065 38.040084361198154
6.013246584378368 119.647581717337971 36.927117509393611
11.025170691480731 119.663116267608231 36.107908446759112
15.991124475383614 119.560998555357259 34.712981980950772
21.087435876593808 119.468796679734112 33.218322054756300
26.054320932072368 119.266106531496803 28.558002019249386
-93.265101630699377 120.555641180193959 40.251859759179389
-88.296864292349383 121.016838335480742 47.328230352797959
-83.417618129659900 121.007695499512650 49.252089407369773
-78.235490955918081 121.124659505480935 51.521798139292358
-73.262345892205431 121.127345690686582 53.562772385051886
-68.289906313175095 121.050209516523779 52.546234093687950
-63.243560657061394 120.790860907671345 46.963542759037303
-58.336197086286660 120.542319502675269 40.055482425613718
-53.202044572719750 120.361489670461822 35.742892271210827
-48.264356935964450 119.969251067318524 29.423424373655457
-43.281093178181102 120.037464485643440 28.754398618966722
-38.186253430535494 119.968147118132677 29.874297700493223
-33.286282690193495 119.940168339197115 29.058421445994206
-28.226483813520836 120.007125984535691 28.703733946840757
-23.268100847080230 120.091099005313524 30.898151568228315
-18.258301678578754 120.297706548006474 33.870151159631369
-13.276487040225195 120.293611063403716 35.996715510429716
-8.284233474972870 120.328117840235592 37.104946411604729
-3.301182234244613 120.399925644329159 37.391225494679453
1.722491835278348 120.286150564232585 37.087229274016423
6.740907313946240 120.434807341305500 36.302088808524253
11.790368400338117 120.328528479156930 35.568243207874374
16.717767140628993 120.214254368237590 33.863498818130786
21.782875962761064 120.185081297094968 31.929313736630167
26.796273542302135 119.936304802622033 26.956877934911361
-91.955983904968036 121.299545716726584 43.282694818897326
-86.964181202229469 121.656181584268353 48.212192650803672
-81.959517053164120 121.568718528997010 49.289183155734463
-77.096376011183466 121.819182232428759 52.476420224364993
-72.086927285282911 121.762155454428608 53.600920809472235
-67.025197626482537 121.757339413056911 51.737931941603669
-62.009576609363705 121.464730611733302 43.451340695118702
-57.045539777724485 121.187892511539971 39.556137025338856
-51.962497365486456 120.986938318178545 34.707397124922046
-47.090688284673028 120.691537733283141 28.025105541346672
-41.956360706732056 120.628873753582752 28.210709632578435
-37.039397151191594 120.717111548242997 29.449818004030988
-31.991252028222590 120.689021703576586 27.066376739353199
-26.903494097371517 120.660229036263388 28.046589405114421
-22.006052722370001 120.772440429053290 30.863040023322554
-16.955822115757744 120.999028327360691 33.319364817191392
-12.050349118991667 121.078348450535643 35.593922308559385
-7.102956037882132 121.016521793874716 36.366035112201772
-1.907827772489404 121.171454250320267 37.037722621428230
2.979789181288529 121.057509722675903 36.281088092849508
8.029614590838706 121.125475781520578 36.085758319501579
12.880247161668914 120.955280801360999 34.869639090015042
18.009450082208517 120.986329632286598 32.947622087378804
23.071911822730502 120.737303978023078 30.437435252748692
27.963943345994640 120.573060271400109 24.240049143840078
-90.181801019782611 122.192802994839056 45.557676474909307
-85.409698210961565 122.436241641721153 48.917426861464975
-80.262175998714426 122.358109915786841 50.211122218681865
-75.233195997004984 122.465796018066527 53.115280779517036
-70.096166375425952 122.574291513099553 53.294364446452015
-65.266448314126521 122.411844729531012 49.863363078854611
-60.092558385172062 121.904010689036298 41.642819232402289
-55.208653674353990 121.955892152396771 38.156534775664831
-50.215618522462826 121.768231708590491 33.115935572429692
-45.287996834654756 121.304961981827162 26.575243950444332
-40.246695372279696 121.345268611681092 28.124565835828388
-35.209021477040800 121.354850275240480 27.951691780231396
-30.295208947691840 121.290462075739327 26.078187465508119
-25.253595876034417 121.331674449105606 27.654917842944251
-20.256265423395146 121.469132653094789 30.950691994642980
-15.091870634428316 121.537091391094194 33.408678490191541
-10.206198267501547 121.766708217754740 35.452199577307958
-5.191393641066161 121.774746205378534 36.292597630621565
-0.296959367005591 121.741364957075831 36.209017881738632
4.697651605484505 121.664598346000218 35.241115060844848
9.701203587278835 121.726483493869722 35.405828223727625
14.711481448806698 121.641881777241380 33.566459259905542
19.864694411744818 121.557288354721209 31.704417895924035
24.797012210311717 121.312257283953741 27.345559058854661
-93.047197371200014 122.696850390369008 41.290174613084957
-88.020784856244092 123.010436680215506 47.434380676251202
-83.017528709316210 123.010380130169551 49.426372767952131
-78.072035490682495 123.288316152352778 51.961156552655289
-72.942316823267333 123.187083208890698 53.418283346776064
-67.994869626553950 123.167462545223941 52.034859407465561
-63.033592269722170 122.950285650790008 46.048926023069733
-57.948066132472441 122.747142978198397 40.442874424917164
-52.908374197766911 122.503526969099624 36.382493416676752
-47.995308834472034 121.989701588438493 28.912258586371962
-42.956190660661392 121.938908319475317 26.461786644697995
-38.014117095419103 122.068854798390859 27.993633379499226
-33.031862661258174 121.932948073348555 26.083002651520346
-27.957613116716090 121.908283381831168 24.060176158786472
-22.990055768164019 122.061369624615494 27.968539551284760
-18.022951127106726 122.297590985497720 31.144322023232949
-12.966829013916687 122.381884298269668 33.809239313549043
-8.082272469065064 122.369789648325053 35.161676263241219
-2.958037602013252 122.447197541820032 35.911953748676936
2.032003123724429 122.354936114871094 35.070752353274493
7.039753312685518 122.374390038725849 35.199029579162485
11.987647339850389 122.419775917491066 33.980557114180549
17.034786523192341 122.160829160932380 31.129763605757027
21.898485207532950 122.205197193623960 29.502122560532207
26.921876874997210 121.682565145654877 20.852078973791851
-90.309002340540857 123.666291574528827 45.176992681685533
-85.321555211785920 123.843666552326312 48.797100894495408
-80.210521651252790 123.790208623676222 51.412070787021577
-75.178343008439683 123.829731899533030 53.095881068735046
-70.310464006275382 123.968796170448499 53.170447095969450
-65.362763143067767 123.794307497551344 49.547955498454577
-60.253670789630384 123.484506859590866 41.876873456693929
-55.246300735032975 123.333435383227126 39.038703435813410
-50.335610017882829 123.089919322440593 33.194246890741397
-45.298169859884197 122.704194701817627 25.348308612487550
-40.287334199355669 122.786627241951209 26.490795945109230
-35.219406298678351 122.772663964777450 26.282804607928817
-30.228445412511292 122.568642315096071 23.251332156388600
-25.277198126939730 122.636666154931092 25.009205260573822
-20.327292396116100 122.851717528100622 28.728957396133687
-15.249795414171967 123.036193279927957 31.868097131059564
-10.346697505608690 123.085977527904618 33.922701193585439
-5.247652787533921 123.124716612426127 35.120905568738145
-0.237683543428998 123.147918602811941 35.059557389703059
4.725917596078551 123.029710622178627 34.553824534332342
9.770286304506321 123.239849654457828 34.308855733474765
14.757063038653326 123.156226129480615 31.937185215115477
19.773169911427793 123.002375149381720 29.803392815411911
24.836217823459279 122.594075738452446 24.641480533004671
-91.892645624387967 124.097079055242602 41.446585417123075
-86.959138774464918 124.445002783395680 47.980749274130986
-82.061668609359543 124.494165981944136 51.310663295533637
-77.029817459554465 124.461669491669667 52.348555221488532
-71.969971669224364 124.623549944330080 53.132691304150704
-66.986952551143034 124.595907752158155 51.015593828800242
-62.041097828137303 124.270132931693013 43.778173164636506
-57.042670361427355 124.000308768591253 40.077856194897727
-52.039429060661114 123.878272617010651 34.928030549634322
-46.925762635430679 123.483959340012063 26.840436758068208
-41.983330825621863 123.390489854235611 24.728658240358911
-37.004280814817562 123.453149663403408 25.713550915232886
-31.909835988494162 123.406377344334487 23.526815868188969
-27.003527018717296 123.216182351082352 21.718822896655343
-22.018387699974483 123.357732967228941 25.682591254463009
-16.989383764753690 123.593662780417006 29.777667169171298
-11.925502311703971 123.776680725303336 32.332302266354503
-6.931665495109511 123.778011932109607 34.093699672417742
-1.983676933691876 123.825137451834664 34.074196764609241
2.989758027508590 123.784170320435550 33.825182285977831
8.056122960984606 123.809565530313620 33.954928071582010
13.075801826174169 123.744335924980774 32.507955507576220
17.925896426875443 123.555267322277075 29.122395904390075
23.085808278551134 123.407670240846912 25.595055471922425
-92.285211947580862 124.925805265248044 41.132720695370821
-87.335504430416293 125.125330240149893 47.618595538265126
-82.208524355177104 125.241355660672710 51.410464935395744
-77.225381087229010 125.317354483816231 52.372419116668482
-72.211260944989419 125.295825172542550 52.904014640120231
-67.244145264852506 125.263186404571059 50.833063081915981
-62.247182372427865 125.015308935197183 44.065901792044350
-57.280201084386682 124.766041684443721 40.140390762180473
-52.296072298581606 124.533608891345196 35.289101410653707
-47.293342313153524 124.270499020909625 28.049353150567182
-42.269366701208263 123.982915038764531 23.416368116489565
-37.387686928043124 124.055010574424813 24.539139737822495
-32.204981366580547 123.954604902948446 21.659338166035567
-27.235502262094055 123.971620827503486 20.308063180409583
-22.330140830472942 124.050362812074781 23.097465258955310
-17.307264810758578 124.249412123651226 27.875058090324217
-12.259240830009720 124.433966217878890 31.272671102665932
-7.253565560517086 124.449788225817812 33.155298337123604
-2.201738625358600 124.441031178130984 33.013524508128299
2.895817840781021 124.539080075286122 33.185230942366225
7.835709551821101 124.531080754840815 33.252850084850259
12.807776612405346 124.369371660425244 31.786411433763345
17.787639706150870 124.172553410017358 28.200934918280034
22.791602214985272 124.119414509981112 24.672594091127003
-91.572986733997524 125.599005262943621 42.893520214337777
-86.519829175371598 125.852426202319592 48.146907128502406
-81.462449605791349 125.966149347950221 52.213958036556178
-76.578126882356599 126.017856219168465 52.701954185846439
-71.480001353775492 126.054775118580466 52.762331306513332
-66.559402935265950 125.977719421461302 49.817244230384325
-61.521286509914219 125.624622939866569 42.541135900547815
-56.431222872726337 125.555076656828533 39.412361681471722
-51.482661423165325 125.231746039068540 34.115886375241772
-46.579838368566080 124.849323665088846 26.396179471947139
-41.502268765483628 124.809536753523432 22.621397512340810
-36.493412819849709 124.807883228382877 23.266838594570803
-31.472747818786246 124.623723163849178 21.014585035700545
-26.416370340017657 124.639094278073316 19.209791203752587
-21.589104714984874 124.753549521654463 22.692923604229804
-16.501427226122242 124.967436416045672 27.029944052559809
-11.555770634256250 125.105179051149833 30.743817733915936
-6.515133634631866 125.182106973829249 31.996031796733931
-1.506615195468621 125.228141693132699 32.491691584742227
3.583984737805697 125.314102926193982 32.588414791289850
8.476561687156954 125.195396545521461 32.241023152515339
13.530971165868520 125.161619823182747 30.802114599916695
18.476310688949305 124.889547199529318 26.699226101725138
23.482438444574100 124.693217805680135 21.102794731521097
-90.150332520654558 126.370349620314258 43.934735794344412
-85.214007482550187 126.707182251998901 49.424302050218039
-80.247267557659072 126.761414999823529 52.760908982973753
-75.120105655437172 126.730150721143090 52.873708866472462
-70.339972518514713 126.663363847606391 52.257271629897240
-65.333238002396556 126.568793587440666 48.192850354810375
-60.299727511826056 126.297063262010809 41.367404609654713
-55.263156047350684 126.125587117506740 37.997287934524081
-50.172497163210089 125.882545263392771 32.763334052725000
-45.255489511810488 125.600771538432937 23.658130965439032
-40.243964833627423 125.416394587389590 21.823483242065809
-35.150573519667432 125.360048108655164 21.052381180468966
-30.236440254558847 125.330775022795052 18.434361240827105
-25.167315821968764 125.249609234917315 18.591048208794245
-20.446641926018799 125.432646008040336 22.968089512474446
-15.260686512622941 125.678017433532347 27.287461908542891
-10.315646367020042 125.808584284294284 29.893131180652802
-5.280093454164839 125.832430098751928 31.583746639110103
-0.293310789286829 125.818193722564388 31.884788494812270
4.722151935279654 125.788765462318793 31.803374655062793
9.811993370998749 125.928696257531442 30.790858077192279
14.762551738006859 125.765947298236554 28.700783470042236
19.781874748618129 125.452460988769701 24.187955911553235
-92.505247287676809 126.907535228438533 39.362619546863094
-87.480293308028806 127.253440573218327 46.751629377506838
-82.420420860705718 127.350201343463368 51.999844285537016
-77.542417174947076 127.414620196434072 53.292010410637822
-72.441305979405726 127.372740694443976 52.328559312447133
-67.502025118329726 127.344505753483716 49.879644456364794
-62.529954333806920 127.119774296368234 43.085743361225553
-57.389430951938877 126.942404707880470 39.536741857189114
-52.364186774709445 126.722191267095340 34.907277613292990
-47.379972679895438 126.512090616438641 28.365538035298332
-42.504883877249561 126.100624830452247 20.307999779728803
-37.459799957734930 126.109013530697098 20.795631753511053
-32.408832658501339 126.047229478106132 18.376275510955448
-27.041740058345862 125.971596801789460 15.034349270410381
-22.010391034734997 126.045637201831440 19.809006746849935
-16.947132875648055 126.149246715319563 24.536589657786699
-11.868558312032844 126.408305509794971 28.248437711907005
-6.942285120092407 126.451905279088848 30.008652451641069
-2.005827049949229 126.579111519281184 30.969495337838978
3.017235887187359 126.493407138472335 30.779234882576748
7.934627291250310 126.479682947542187 30.315870170368878
12.992569153909786 126.434405678820028 28.964731240967456
18.027585954569957 126.296937019789397 24.521313450332531
-92.657146432103076 127.228572549149973 27.798809706022144
-87.700348039768841 127.950406975432784 46.408751555205669
-82.787652684884861 128.093727789476162 51.787320256254603
-77.744636833362705 128.159492509278522 53.445542788216159
-72.801011355914198 128.117399218248522 52.053083262649871
-67.766093616669394 128.124645209459942 49.671540433528307
-62.771516965137771 127.849874869962221 42.971619716227508
-57.663544246629520 127.613979015332831 39.417441130303935
-52.806063702156358 127.514921629735881 34.970926627151492
-47.733905250736790 127.242312254421620 28.807881900406716
-42.711475450922961 126.890604228765866 18.867484360963591
-37.660617561772526 126.834143159370640 19.119322574851015
-32.738167882564078 126.638419973642101 16.027917282959571
-20.263651714225855 126.809909307580497 19.916249800368838
-15.271303128140373 127.032201534953231 24.894192081924945
-10.366969619588824 127.183168697725733 27.915376227079530
-5.249314259180586 127.207859471505657 29.508156314687454
-0.257776599239400 127.228352687545566 29.742268256894025
4.725269268614154 127.208940527546673 29.497701168836397
9.722897426931491 127.166233604766759 29.194132840107439
14.752774518087925 127.144556325095067 26.945658609947383
19.727908114631802 126.778362758546081 20.521655019673656
-89.523383466395416 128.584170959084247 43.739714031840016
-84.484247777030490 128.881342353730361 50.482859960514922
-79.440383306824899 128.921982919642232 53.114615022276297
-74.566300379497235 128.844729129724811 52.637226985287903
-69.492323703605564 128.857819118460725 50.693413206824687
-64.542755994353982 128.624515773973428 45.327737874642139
-59.511460458938558 128.353181056609571 40.174584935741102
-54.549529189873532 128.223773943773637 36.276889348686076
-49.524255540441594 128.007459637433669 31.346274911900419
-44.541702522167022 127.592084806500935 19.862127092230089
-39.528663738839775 127.315765389616004 16.731946527407729
-20.548980945482526 127.325829045795174 15.413650112748815
-15.351095859612981 127.530599839613416 22.634494273653260
-10.514812729554327 127.775864804761198 26.364436338691384
-5.576172758368558 127.967538547859689 28.213549376739770
-0.499115546126507 127.799828796740542 28.744042081029455
4.465600628523138 127.946243239926474 28.347312111893856
9.482046989647962 127.971069940204146 27.916477785564410
14.510875962140727 127.858067977476210 25.706305398037681
-94.269780341131636 128.267147747306637 21.364766791965248
-89.230118481356044 129.152302126299702 43.678882264262711
-84.242387414513303 129.571541236993909 50.684827309331411
-79.309017375137515 129.553581710073956 53.117089412770078
-74.223101846511426 129.507375662601760 52.469446201051113
-69.283553153868908 129.494669015711310 49.927152887740938
-64.192889424977793 129.117511995480271 44.221091975705832
-59.215376082052039 129.137897196093064 39.538357878465163
-54.220041894709318 128.896104926042511 35.731688826306858
-49.252477596852493 128.670963427977995 30.329012491242676
-44.249421948020782 128.271817354521261 19.698988735467264
-39.263486928078770 127.979718199708643 15.171990358520363
-15.299560016879253 128.290935532718947 20.414640518927797
-10.146569396108763 128.513343154280847 24.968218822782738
-5.231500535334431 128.548554653690928 27.336839488855659
-0.233139968895902 128.631746083683822 27.440336286944802
4.675532688760305 128.625232729589499 27.403918503024393
9.655563243249700 128.622259095243919 26.903375915173640
14.774470964691830 128.302597754427325 22.317525648220560
-92.570636719833146 129.273971052745310 27.076226024102148
-87.511710703613886 130.057018831636213 45.828416338503359
-82.499221196842257 130.194617072541945 51.701230422343059
-77.552572234086327 130.274658790911730 53.094058572389798
-72.563385946745328 130.221498065438311 51.392119538910428
-67.531230495006113 130.190912724982240 48.040553377161778
-62.403506164993068 129.808105756418342 40.739177806178233
-57.594122253344587 129.745848799272125 38.182507183618135
-52.566575652287632 129.570182465397522 33.740272967338583
-47.569303770183730 129.192944623510499 26.848355618554031
-42.464967831917050 128.732729785295305 13.900846710194692
-11.919617476296491 129.096247447977191 22.587974448859995
-6.980930632221868 129.124719975321170 25.737082797026329
-2.010505283344961 129.214359481043573 26.295531701056081
3.018172092390034 129.196470345721622 26.079497318132507
7.920740176072395 129.133356811620075 26.133235669848119
12.997979544452500 129.113430428159518 22.480525558332076
-91.713403561052147 130.064849706151250 27.923298112864337
-86.864986646285558 130.825992233967128 47.476603709285051
-81.722822852824493 130.885685000939020 51.932034094372582
-76.784604581473232 130.934609693926262 52.900020475579559
-71.722091547273436 130.951576557174860 50.860917175668767
-66.687848892234129 130.753924153675456 46.338639885215123
-61.695898986400493 130.506962143155476 39.851353213496743
-56.663347130212536 130.362873870602272 37.294402839658453
-51.702447254870982 130.147129892472151 32.975555282373676
-46.728245858313933 129.924658103159459 24.301438519940248
-41.763730193476185 129.433853427736238 12.114441089543675
-5.827206380432930 129.910024526130883 24.308148994178154
-0.756082632843768 129.972231626150744 25.111774663422473
4.198276613327113 129.875948518829830 25.034677365161983
9.285265041926317 129.784242055001272 23.807200033364516
-93.096419780879756 130.477122012985063 20.797233050079974
-88.023994587762218 131.398003227990529 44.509573817673385
-83.006615822062415 131.615096803854726 50.820788849808402
-77.964715105118088 131.683700622308947 52.685782756117369
-72.986673465488792 131.654634281880277 51.322972861052477
-67.986974429143899 131.518601758426257 47.638920511832758
-62.969229839972982 131.280626654111813 40.516335605906626
-58.108057883663790 131.145662109262162 37.694075859120971
-53.031259746797090 131.055817327630137 33.716824478664712
-48.064255800319430 130.637486951904549 26.872969277771503
-2.939568652672716 130.599317367081767 22.715819544808337
2.901998171844773 130.612127453812434 23.002279673057160
7.948150817746259 130.496956843675349 21.315751558363264
-91.723481339724714 131.395608868974364 26.870353186511835
-86.745760773208744 132.201515120401069 46.893890614793996
-81.739889890318736 132.278024704916845 51.351437888661565
-76.663070592556380 132.319457786423925 52.399235279240713
-71.770432106375168 132.368206186865848 50.420870146701972
-66.753753793152669 132.239093978669814 45.587812372959888
-61.800354033560772 131.931113240864136 39.169082460689594
-56.813949680441326 131.730044382461784 36.550040712115617
-51.775818442259322 131.703198093260312 32.121867618036298
-46.797687328873522 131.247171753028681 23.139182026250094
3.297814672293502 131.108860013105925 17.075067489705091
8.707434535260868 131.175622168914060 19.034716428761307
-88.482379835707945 132.777705029801353 42.607342633227141
-83.465276248359089 133.020689110620623 49.909353497515049
-78.423157032856494 133.067435281685675 52.152102969255345
-73.499107435980719 132.999876302251181 51.046498484172481
-68.586515464633877 133.035126021858360 47.527337965838406
-63.394650447237595 132.683862061659795 40.092831890813372
-58.521098256495556 132.597506264582620 37.215195908638293
-53.525982863892409 132.453782746362151 33.234513377809677
-48.454870844221631 132.074593499588872 25.805501609949072
1.982350102190364 131.812363672424823 16.767536564541562
-90.282936373802357 133.291216583331277 39.072020237983153
-85.194657374519522 133.688163825861750 47.954959421884297
-80.179620336589167 133.825744512134861 51.288735067811977
-75.279154510963224 133.789967202191519 51.638559407737596
-70.248548991652257 133.684252766322857 49.015077390099272
-65.200649814467596 133.498814943895411 41.718477125749182
-60.304095229354004 133.245867730830099 37.579553474577672
-55.242760325120344 133.176904998310590 34.342382369964596
-50.261491586977932 132.911304027833580 29.071102133153243
-89.962430855457413 134.067598010850418 38.863111222323404
-84.867407284237927 134.305328479911935 47.680142037497312
-80.047777936369869 134.509268645058029 51.061970258743521
-74.942063973764505 134.409668529960385 51.176076687081014
-70.020961849566476 134.379828653871584 48.547193999047764
-64.998539710049357 134.134217959641944 41.301264273149542
-59.963749560154781 134.008607586171991 37.188870239393090
-54.959546095355520 133.823071523656978 33.441517378080036
-49.940371095264311 133.595961037468015 27.751939175544010
-89.747115281639012 134.763623278467719 38.977975119394394
-84.767289865028644 135.101677492079943 47.459640133681425
-79.758255767728485 135.213579987624655 50.775694782228570
-74.814744261687778 135.286413837633376 50.837817090572152
-69.705952627104196 135.128011226354317 48.271614722610337
-64.798085922557277 134.863500472501869 40.583193715119968
-59.752105277613957 134.619499623346087 36.524107521186941
-54.730289177816736 134.571724843193437 32.966968184428154
-49.774485308943362 134.357669905451615 26.406838149109756
-89.544035678640483 135.507227385114277 39.204684071946453
-84.567340227599857 135.829723801520799 47.286609967351382
-79.526058323332336 135.909375392660905 50.520205590933664
-74.542431550425434 135.837084981174769 50.554304468517621
-69.447643076788196 135.915610949848144 47.938599025878659
-64.501278078110175 135.503853245177027 40.026683942883743
-59.404373135817160 135.428239475292315 35.850769139606520
-54.492399339901880 135.180090351810748 32.275427571266569
-49.447471444389393 135.067490765203075 24.798098223000657
-88.839209864285721 136.310586880928071 40.076183381009152
-83.766497969513324 136.507826436657297 47.402456263918204
-78.724054455171910 136.563530808098648 50.191898544721994
-73.749149503588939 136.485866683004303 49.773071157201919
-68.743536247728045 136.513851459211878 46.793385978399826
-63.768292326486737 136.225442771330421 38.469871073416435
-58.837177408345461 136.147043997671915 34.907642017733139
-53.822705639026616 135.974955497058943 31.094815486442130
-48.683590022375313 135.501618057792939 19.976462781321356
-87.459163107052987 137.029138474857604 42.404315806626443
-82.505273545277646 137.294615187104228 47.944625826683172
-77.491145052472660 137.230442130524921 49.973812323326783
-72.501370945212045 137.241142389083222 48.974175301951917
-67.490716610090615 137.199684650974234 45.148631242034490
-62.453328329457953 136.795532154528615 36.397991557437990
-57.487433544937630 136.765533186341855 33.400405145646957
-52.470377027135505 136.530710463134966 28.562735768930523
-90.851199407581646 137.028477869301867 20.882816954374100
-85.837803825153571 137.847842394937032 44.288794687108876
-80.776801232761784 137.888458160757381 48.451758390277014
-75.825169355828308 137.986684245646984 49.578186809883583
-70.670776084873367 138.050968779269681 47.832003519330456
-65.875375498359816 137.774122993625298 42.460706975611174
-60.761748929065284 137.466385168415314 34.726304595172472
-55.724802374102723 137.318315419278946 31.550726746835974
-50.647593806603581 137.063304310782314 23.026463559743458
-89.492150877741253 138.308552127195043 36.969673230602687
-84.433365909137422 138.637855059565965 45.177020288454749
-79.503202175898267 138.627920528889149 48.709406452603062
-74.552525990355633 138.796382438175357 48.994863663721745
-69.578261803136158 138.579714817110073 46.682802765063208
-64.455506379307138 138.377109712055841 40.188231725124297
-59.440387128786966 138.254879773975802 33.648466730301635
-54.542438353955006 138.067974689530672 29.856288494525565
-49.446066706197200 137.651531992677349 18.701496373885327
-87.769475285980704 139.023754426039062 40.392816540406081
-82.655113886992993 139.333019054984618 46.111624946010629
-77.764846365460983 139.406333773475893 48.685288838658799
-72.740080432974310 139.393561912746520 48.192316148971202
-67.737824175917652 139.297774844754542 44.940863153500302
-62.793817682556764 139.061727432359476 36.203002199863128
-57.745493618607128 138.987547403790899 32.527526313879044
-52.733799311223947 138.600680775811725 26.346247652499784
-91.035250148038685 139.175923416775703 20.025356446869896
-86.017459544392480 139.922456497054725 42.471595115443094
-80.963915969171367 140.145023384780842 46.749499090397713
-76.018329603141979 140.060776851197204 48.374148814686933
-70.960688269035714 140.055268625302062 47.049204459438656
-66.076436365107256 139.953087437987307 42.350656063901646
-61.017680618298265 139.603678030052833 34.477927964943767
-55.896664629997744 139.558281243058701 31.151313189861778
-51.013877592435477 139.263555829138909 21.148677093922288
-89.226669895229904 140.309384415638135 35.407430978657487
-84.226687669298983 140.700245757229283 43.556181747486896
-79.284070158145255 140.800456918419513 47.090031876093327
-74.266461533003294 140.847588652633476 47.701605221870118
-69.246260716343144 140.686665487319004 45.567953279640228
-64.209836334964521 140.571354548876030 39.350994417845079
-59.198885563239884 140.364600096899181 33.255905083722361
-54.253217110120850 140.215567752931037 29.011748069551409
-49.273798611044640 139.777139661522995 13.792365726338963
-87.617314005540152 141.230025359822861 39.202394594622035
-82.517503752258605 141.445811293241348 44.441212155800962
-77.507365972976558 141.499939597388476 47.185588207903500
-72.513568228911794 141.455267975311074 46.825946554420938
-67.544124564905999 141.346138251564611 43.855515162399371
-62.484812953449676 141.144978536940044 37.218745741813052
-57.499845863758900 140.984756783917135 31.644152601174429
-52.414086378795375 140.640476969067180 21.460069099664672
-90.676983948307821 141.516516129726568 27.292807085629992
-85.711127948178174 141.965018666943962 40.588085917483369
-80.782110092910429 142.109756877855517 45.059150544398868
-75.751128198261810 142.223841301938478 46.823416521931875
-70.712673843243891 142.129594354622583 45.763090382156193
-65.763812100502818 141.936086924112601 41.241202330333131
-60.752304545456916 141.831210315881378 36.044772699007538
-55.885481730591884 141.728639038032128 29.763204853722375
-50.700492047374119 141.298757791436032 18.201336500705640
-89.567420779768952 142.379454255097812 29.133892754175434
-84.500639650893319 142.808666235832845 41.397967575498292
-79.524730693841036 142.854602381062023 45.143337697686952
-74.515043074633482 142.709054614252864 46.216063782010274
-69.490308670402470 142.858291095631216 44.860629514232059
-64.421156681176996 142.776828579596355 39.793823149585123
-59.492134062732063 142.509254069889124 34.888428905366005
-54.483606196176567 142.404605642814346 28.396032003048870
-49.520259653650399 141.853064438969000 12.020533605762864
-87.863910654843679 143.270105790713757 36.038115711058808
-82.693776029043406 143.541798894774246 42.089269367235914
-77.761990881342683 143.569637927323129 45.226282918010334
-72.819291528250304 143.601282958525076 45.418480898578181
-67.815030532365427 143.451162317730819 43.227934620463856
-62.892788495540714 143.401686071161549 37.795717791577424
-57.787750553875149 143.166695330319840 32.478305344129602
-52.859282262135842 142.906677217473657 24.831841917710094
-91.010727646024691 143.739612952028295 26.281970684753354
-85.984353009091777 144.169680546467987 38.033447926160314
-80.941562844814953 144.247981563010995 42.789899464621634
-75.903734179853572 144.375758612048344 45.043898961422300
-71.053620254050486 144.224429894767866 44.486225848299540
-65.954012694532906 144.088102697160195 41.102471348059218
-60.967491500322417 143.923072552303665 36.766672545862590
-55.995560043492866 143.891848916816656 31.089367695067693
-51.022957164757436 143.312229461055296 16.750257607392502
-89.271526270011663 144.489361167053659 29.497902452554342
-84.266633597510349 144.746993141426401 39.089566725908526
-79.253300184298695 144.934318547248949 43.232137926631509
-74.289712486461440 144.965247444183120 44.491602552161297
-69.273444661683882 145.053356745045363 43.271920749807421
-64.322519241962254 144.824201000833057 38.858398626153736
-59.213630729514186 144.674155426239622 35.128057881038487
-54.300940357425780 144.486669848448145 28.844998893442117
-49.241115215569977 144.007472955841450 8.771139606492763
-87.915879881129243 145.288709147090657 32.289424304581409
-83.086200124381421 145.612006515620067 39.607057422961802
-77.860378348377623 145.693339168668473 42.901067924944435
-73.018553815012140 145.682174743331302 43.666006752277553
-68.040979546742321 145.561889135757298 42.260407963336561
-63.058800069594461 145.500412315135918 38.139607284057355
-58.092338356592329 145.487893657702301 32.678879490497181
-52.984144745990015 145.108794054450669 23.104748632848601
-48.038408569343787 144.622836913456695 7.592459046967124
-87.711491116281977 146.063053609069158 31.967468874607857
-82.807563046366340 146.221054523733045 38.913905070303080
-77.541830731261342 146.350331988456560 42.456269854691115
-72.730443809150586 146.387776013325009 43.226017948512641
-67.770716562945580 146.342810037185785 41.550591427978958
-62.830872584586039 146.177230408935145 37.733091014823991
-57.728735290480721 146.157714189248338 32.414879071046933
-52.688294576950845 145.737022918158999 22.355707804273003
-47.763329522049368 145.462135668942437 7.722174967983254
-89.032442789301840 146.624067670485516 28.632757429836655
-83.989185783687802 146.948696523575848 36.853686611642786
-78.899630887874920 147.060051702178470 41.202629962793509
-73.966402888356498 147.032091758631310 42.431387317216554
-69.020656585191048 146.984778651777560 41.471246855506742
-63.982475153108908 146.854866221359657 38.365974949523242
-58.896710816492515 146.918157960000428 35.207615113563683
-53.914626211653953 146.605313855285289 23.656018312752934
-48.997930974252611 146.150654165330820 9.524461371717608
-91.249300580215802 147.316055918495010 23.796115607748099
-86.231087357319922 147.436583943736537 33.062056988767473
-81.299566640458053 147.554551345428138 38.431328261547016
-76.258875178208953 147.728152912581976 41.384441450540791
-71.315650701507494 147.712027537446460 41.602909674558916
-66.243800275463641 147.665214650138239 39.545888534588904
-61.248405085444119 147.669954587470301 37.017359481714493
-56.288121251729407 147.454905232006183 30.568111368461306
-51.208101314162967 146.911342924318404 14.275620799552847
-46.222524957136542 146.853283703049101 7.115930645693592
-89.883095633659153 148.048372782025268 25.662685536133228
-84.953022264079323 148.346983082126684 33.829229398050046
-80.000143420380908 148.352968441211971 38.615099232032790
-75.014345083626409 148.481782990916628 40.868475880705205
-69.962127027797862 148.410020412237486 40.695776112850936
-64.948080343491498 148.389537933879183 38.567610242959638
-59.993105972892394 148.293843856813567 36.139182880119868
-54.948668085579001 148.134871380240156 27.756476515578431
-50.064171054575034 147.712757668687743 12.039582552841905
-44.884552691968189 147.410287363802780 6.664907269838669
-89.849482239010072 148.825737766460975 25.137067952238798
-84.747383704791517 148.934719701699180 33.228016384819931
-79.719959601112222 149.039531480530428 37.712538481679367
-74.774669105039024 149.139538899170134 39.891823315023785
-69.878382615431590 149.141317425392742 39.985965515802000
-64.753810526832183 149.153313682133614 37.966974038076621
-59.679830542283732 149.071508128647622 35.647379744029593
-54.687948425249608 148.771891272085128 27.345480903182303
-49.819526476635716 148.370003315512008 11.616996649172494
