ply
format ascii 1.0
element vertex 816
property double x
property double y
property double z
end_header
-13.499900420047172 112.815108722124307 40.832947888808221
-8.523214533542166 112.901679041383673 41.516523670864487
-3.464817068701283 112.847482446120168 42.016173907135482
1.567789070466918 112.777252469942297 41.959570198169267
6.430243369222339 112.707867901064489 40.843373483771160
11.469793818906357 112.617309123163210 38.983763017902788
16.559879558926593 112.722301980425868 38.348926721445864
21.548182884803079 112.611320911923357 36.862822798378318
26.518435946833073 112.520340820792256 34.751596276838200
31.562305379937509 112.384775118725599 30.724782609251811
36.556717540620660 111.624940811641594 19.604991001323363
-85.162922507342927 113.752715202116690 46.139273570887049
-80.244497948242639 113.890630355888149 46.666297712403697
-75.355153544961723 114.022587133459552 50.284565444553202
-70.256907031947563 113.970392532434190 50.239695539515544
-65.231328725998566 113.522854239445650 42.174670386594613
-60.299058360555378 113.207502269946900 36.129477094147319
-55.260821209572391 113.152974742720474 35.410802115794091
-50.199656558872867 113.155509194997435 35.135573019173066
-45.195171417044016 113.185176752419878 35.058819938232588
-40.291912718899830 113.123962972660138 34.989259835517196
-35.277519578457550 113.112989894308370 34.394148159101569
-30.134904720459165 113.159035726819567 35.132679867348507
-25.230436484896117 113.144645694488219 36.200016131110331
-20.287654623194829 113.296772917712502 38.471104316398574
-15.182882320240916 113.385191746842835 39.672858909779549
-10.263249836388148 113.508623523543193 40.982672687176652
-5.241854923214841 113.444333761106137 41.336185714995629
-0.249224674615326 113.554708549096773 41.836611888718657
4.680632028692258 113.522590822839362 40.986849584502011
9.862090647194684 113.486992797199647 39.298898568592485
14.747189178455169 113.274686539730268 38.502173685626872
19.711469699633199 113.189918779246895 36.893785267115639
24.774176904977892 113.155631523573604 34.968180667350275
29.737426672335356 113.127003924307715 32.198317382557427
34.698244945155487 112.625735112180678 25.106917868522409
-87.011403355472041 114.448422348995038 45.454120604826620
-81.927940366929946 114.533008790614701 47.420576480150473
-76.974639949313229 114.645704500111364 50.154594262609550
-71.965222653100255 114.699561838597262 51.195023589249359
-66.980472936491239 114.629206962150832 48.206825552249740
-62.010974035711193 113.980176920054291 37.251697870471368
-57.096646944059373 113.820047109485287 35.778097517268613
-52.013490448417812 113.793197828610701 34.740278701136575
-46.992322533668037 113.858008977047191 34.397334791464978
-42.096358999122643 113.941830523430426 34.681291171353116
-36.957063685518506 113.802824019915164 33.833348694998023
-32.028691358680561 113.865045285963390 34.389573001137187
-26.916320305251983 113.875461072251113 35.004934977457495
-22.007272154935425 113.993534264713034 37.505542133694597
-16.949925871050610 114.087881643057116 38.760763335706642
-11.965870693159287 114.202877020115153 40.282758807554494
-6.989114803484262 114.291364406740328 41.068166453792784
-1.981887806233366 114.244863000194229 41.574964977826845
3.111913473622138 114.196575884720147 41.100769676041232
8.001741557938999 113.944227773956811 39.650747075738764
13.036240943358170 114.066987910366166 38.090695817367951
18.050685535813823 114.002769001767476 37.250462857349397
23.021731827402650 113.829661702358734 35.291657085246293
28.140572514033853 113.793840295153998 33.060547577702813
33.016121949257304 113.399462331546928 26.865986220659298
-88.706531314911103 115.189622789670636 44.401332335917523
-83.791269738098947 115.262322202682142 47.932229609907360
-78.681831867216360 115.417448282856824 49.333517701672186
-73.727437645220917 115.432662921226992 51.524512088499471
-68.731873504296530 115.400478279497577 50.752185002480239
-63.679103901886847 115.017121990280145 42.178599115084225
-58.775533942951306 114.793652348805679 36.470361056310793
-53.603503544314215 114.461294286635265 34.557801104495432
-48.728276499656957 114.569418462552775 34.068144830200282
-43.720662536255759 114.514130383151439 33.962760467485801
-38.669836874540671 114.535530620931979 33.799246325029905
-33.838880921660909 114.469285853920780 33.537134219089381
-28.773861551984751 114.488237098159786 34.279473957854350
-23.772327015526827 114.689388541065995 35.701903132384352
-18.746643204934632 114.837435675013324 37.820943760432492
-13.828890430841321 114.896758093553146 39.241994955786431
-8.753889558891716 114.833255207969245 40.590236897704010
-3.674239831187083 114.915387614407763 40.955098869042068
1.192428004274872 114.914406674882656 40.980624299969307
6.298989778381730 114.960253332020827 40.093076147321376
11.194572191176348 114.786742925488653 38.228554728929026
16.299362347212973 114.774189813622939 37.472414270922975
21.252869161086640 114.634793069375903 35.541377512043830
26.198473379922913 114.493562625156542 33.303363603215708
31.237604194291553 114.384672335960644 28.801544111937869
-91.110184427073406 115.702353001851506 41.270230639078434
-86.081438257040816 115.945296819493279 47.418343754161484
-80.968245529679791 116.034434947894766 48.122062943526821
-75.828702385713342 116.096241982465585 51.650455611439661
-70.997059917796648 116.165695349758835 52.035830202339021
-66.050292714026341 116.083039238273500 48.424839711511893
-61.014247410735273 115.395224625897484 37.926417593236245
-55.933614130600965 115.315289225714110 35.784543350696914
-51.059956671592559 115.159390224117288 33.594868562408990
-46.020947328288379 115.112235740018562 33.144846450573404
-40.942629360381488 115.191817603769863 33.689058850177645
-35.938957149328076 115.155837997509977 32.770105603711002
-30.986170632452747 115.205230638536548 33.306012197926229
-25.960841361788972 115.272247747998861 33.767148460340643
-21.116993958773474 115.348044360453358 36.712625110541786
-16.029894473174522 115.479596937899458 38.312658847716094
-11.015804201977671 115.636389809740891 39.705540233567142
-5.971155535416110 115.544424006801847 40.317817261052802
-1.105398029980940 115.656462332535142 40.799575634886708
3.891050461286376 115.547706214021673 40.085724967479237
9.114092514975189 115.543011207955587 38.667358756665323
13.993098910099890 115.410065777364522 37.173023926435476
19.001746924042475 115.381973209829951 36.347969431499187
23.965725479668716 115.227931909681416 33.799589173397734
28.911704654440303 115.076976027798963 30.918342051990695
34.026205601975846 114.681308852703566 23.046559947450589
-88.235792584467163 116.678965990590257 46.150481192761845
-83.263135708190347 116.787316098164169 48.692190902567006
-78.209301875358335 116.740091401811782 50.603410318146111
-73.193682018319222 116.911368804260732 52.394024185110219
-68.273875261857910 116.865739775209391 51.552922474251055
-63.322159972071546 116.464851764869408 43.307496644413938
-58.303320192873151 116.075179463860451 37.639597779410387
-53.253892243485829 115.977105490775671 34.013898369253312
-48.146480068548605 115.969964994720087 32.558291892153470
-43.285301132576926 115.909311371668309 32.789485115112555
-38.232205809849582 115.809500201742253 32.589980667982090
-33.226682643465075 115.824745310666117 32.424394800158773
-28.206643714300377 115.840459003575120 32.982185727363046
-23.167395435650093 116.044504105167064 34.996852473264831
-18.137916071126860 116.066691104475524 37.419870406277866
-13.273273381861884 116.186993633081926 38.536971265572198
-8.269544652857975 116.352619670824311 39.850317276225098
-3.212734754014797 116.264713285055080 40.273473921807877
1.693105194202794 116.298349950863411 40.118718937760903
6.854228721764888 116.256822435241958 39.116219362116446
11.779669416807268 116.140420252165697 37.412662480414774
16.832065135281283 116.109304661364575 36.528833647526639
21.772185713823383 115.940678950332810 34.742425259240413
26.670618071819518 115.883245371508053 31.937866616686705
31.693182565286524 115.466943508009408 25.983938757817896
-89.980938039802055 117.265153170467599 44.587183475282977
-85.066955514067430 117.429099141891214 48.495625333709135
-80.079258350642959 117.498367321867875 49.124446623022685
-74.930767816078387 117.524216097421288 52.481857650233756
-70.048645485664821 117.604435308194368 52.574323189467222
-64.859457006719452 117.476150081551637 48.481230110156922
-60.014059304831292 116.909956831560464 38.875678999589447
-55.021796012139141 116.768370029285364 35.784389801566718
-49.908392625511681 116.670992641424903 32.482128312762278
-44.928118379725873 116.625343521052500 32.113498940749572
-39.940818803593437 116.597808311533754 32.532514369381566
-34.941840376940668 116.458214883053486 31.959119589484644
-30.027340767259862 116.606277285355944 32.160150442784179
-24.977119405747903 116.574184171807687 33.340764509465444
-19.976013907896288 116.724980224179689 36.046785683668126
-14.983599221023391 116.824438779043945 37.491764165984733
-10.002305487864993 116.975060026104387 39.156207319944357
-5.004666313285600 116.906355047319110 39.654026547915770
-0.044925274398166 117.019005610635162 39.950017554285630
5.014583916403199 117.091825757786395 39.183890034465904
10.002766992427819 116.895858527249374 37.695104412749920
14.854934280524999 116.786705364777916 36.496268021430787
19.875828531295728 116.844079195598511 35.310231993155746
24.941369784549458 116.516094125644315 32.270616296774627
30.077404530337510 116.350606042431522 27.998285795984721
-91.725522185760582 117.771281652141013 42.473585069059958
-86.841658448367113 118.127123405642976 47.969942375062267
-81.616364733550370 118.152035363818939 49.032808609515733
-76.760693171938257 118.226723401384419 51.916985384082160
-71.808454888614889 118.359060499618096 53.162070384847901
-66.682862397317237 118.134816396372216 51.227338633531836
-61.789770636374541 117.782070548596195 41.305341365385864
-56.684876600053990 117.599961078167283 37.945057666328886
-51.756593887096699 117.341261900470670 33.124193125615946
-46.776779235946236 117.231008805323597 31.116189496962722
-41.632297224825926 117.345985637898508 31.910402273873707
-36.602100163488451 117.327342215700966 31.570380252420151
-31.725955520489979 117.278832338641223 31.623919707027156
-26.727987018535909 117.290705810396844 31.850370814819193
-21.692354780595107 117.542165818060937 34.736631789748593
-16.699869997182596 117.538247150835815 36.290140947409718
-11.727781879832300 117.585752296907415 38.259348662894496
-6.836715301733592 117.611141840683018 38.867626905158161
-1.720163421589443 117.663423119029659 39.556330751989186
3.310823935481000 117.725695083105137 39.344799604417886
8.279717260157792 117.620250292554132 37.892570798300568
13.228950409069082 117.475921422752364 36.452016791952985
18.249929575056818 117.398257334473186 35.678206340048760
23.119643492926308 117.304521792406561 33.018691070589867
28.230830412722842 117.175995005154903 28.825717779659676
-93.006874572073272 118.364729270086642 39.698856038382964
-88.062206608930822 118.747942937271944 47.478669989862645
-83.010120830954477 118.807839045038861 49.272410704630779
-78.031965751671024 118.843642527437936 51.393281886012979
-73.015100352814130 119.005326271525576 53.274319698403012
-67.938707228800794 118.952249136043775 52.303236705798540
-62.986928819194539 118.647797980089607 44.983261855166582
-57.993217391582156 118.350931518755843 38.878548122239060
-52.944160596327151 118.140773457280787 34.768121934523890
-47.971802167803162 118.060767089029866 30.711438390722208
-43.038170099174941 117.922845693425657 31.030859829577736
-37.991505744418106 117.952381568168306 31.161744280147264
-33.005049751330532 117.841175517517883 31.151128988002867
-27.980547360211482 117.938336779277776 31.189165312854847
-22.965302174690557 117.983618690618627 33.279256660268935
-17.985934244698036 118.129768294677078 35.576720729233671
-13.036681753807130 118.269624825316271 37.558398033839921
-7.998305649527982 118.318853991983019 38.155187031595666
-2.926736953852816 118.372840834260558 39.110833614510945
2.035474922678568 118.280028284309950 38.812338047297850
7.012976699804754 118.279868245662996 37.873540400006263
12.039657840058698 118.210575171030072 36.513210913415818
16.906274390104894 118.207507197856359 35.406447091000381
21.958651556058154 118.050445019302046 33.496616240845896
26.943485687472869 117.842398235068828 29.363033060438195
-93.821539637793791 117.979769612481377 19.406671706606552
-88.828198359199646 119.348458896653923 46.753308428458780
-83.784039037857042 119.533427405462632 49.423938979643431
-78.691790295646427 119.560167600603251 51.127829577819419
-73.802728929985378 119.715170413331890 53.173119143947439
-68.777385255697837 119.680241180184311 52.675442917601607
-63.775127899731444 119.532386178863135 47.324366091177922
-58.708560721941971 119.149620431749241 39.583208984440866
-53.740452714440501 118.905216075858561 35.729294694443347
-48.772065120644598 118.652564090257584 30.833379379159929
-43.766988076899125 118.670154361325586 30.160777346406217
-38.749581923791609 118.630807600511176 30.781894044120442
-33.717570390843967 118.725754371910014 30.582568519447324
-28.817585258561362 118.654747528511038 30.274972055239619
-23.735287051014751 118.776498371823493 32.257609556076567
-18.728426815060246 118.945693300039522 34.925461420432867
-13.735556067029000 118.973459514336128 36.858862436025198
-8.666499721146673 118.909751568716771 37.550167955303507
-3.810738524508502 119.010593464970526 38.521222749672290
1.256728881378780 119.164059925397808 38.593070685423982
6.184080665146411 118.960832328512851 37.325424237650431
11.288733859918928 118.926954548319685 36.350729241348297
16.238399709368995 118.802396870910002 35.055298262227403
21.403384124549454 118.787412152970418 33.603407110583120
26.335756354507037 118.499615378711596 29.154981665697644
-94.071681587951872 118.807434674339291 19.163022119201081
-88.974608374804902 120.097662669869322 46.689439584493392
-84.011238763990221 120.282277115338431 49.201010087767969
-78.863962975793171 120.345800568983307 50.873776878321273
-73.939713384710871 120.417585680253225 53.422714361292527
-69.028498262789412 120.367189356241454 52.936761711759274
-63.878048399574482 120.250185878390681 48.320338302664908
-58.889887453960846 119.856905344120264 40.228325911496263
-53.897387670162921 119.635709975383094 36.383182180664257
-49.063747891890074 119.317039110346911 31.187027268960122
-43.941400949650998 119.306915940387583 29.446315014651969
-39.042561496144231 119.417006987921496 30.415971265002700
-33.983057477069991 119.234823617805148 30.013826625589854
-29.101289224231095 119.292635293140691 29.423905987342202
-23.981815942970229 119.303498386993965 31.315688293191311
-19.083216448110544 119.426775307824954 34.258099668974033
-13.942592761172806 119.633639027568051 36.344175274821275
-8.933239737399891 119.697415080400873 37.256736229469404
-3.922550211931880 119.607731423759589 37.912489896193527
0.982741515297703 119.708415940008123 37.943871758548774
6.021036959347056 119.567025935914813 37.014035450158218
11.109321285344814 119.687029188204761 36.079479747433446
16.098519530716793 119.673118314650608 34.890272393623235
21.002108505186101 119.449565514985466 33.114438730236039
25.939998176501636 119.207155322970209 28.536061219383512
-93.218910921006440 120.471602618815396 40.266229889843700
-88.290512563763357 120.921195685273148 47.392203320228894
-83.344230188756868 120.932668436693675 49.279497810281534
-78.277819258041134 121.099532378009499 51.530524568321248
-73.211274259275257 121.124746819423095 53.605018921465351
-68.311730659987361 121.064427392860409 52.735440965359651
-63.184709064066851 120.792972833601226 46.851811046886873
-58.193807061181062 120.440684718895795 40.081242940116098
-53.289269637364512 120.293915333549634 35.752288164308517
-48.234670869076020 120.089828240453656 29.480571506703612
-43.393504411522848 119.972220852384055 28.776704903800834
-38.248200374379714 120.012244013200615 29.843584927752012
-33.265432693132823 119.991467123926711 28.982684691164177
-28.317399275281211 119.924282717490840 28.644853116309136
-23.200463704011081 120.095984789909735 30.935776923886838
-18.341601343800573 120.257349596353436 33.932988267086863
-13.367050061515258 120.449138592699384 36.075377085401819
-8.110653214509096 120.456058384205150 37.060533885599583
-3.237993103421939 120.340657635284643 37.357927957369071
1.740481881966183 120.412144864678439 37.158993293959085
6.789042780593195 120.364414150800940 36.482311193992572
11.702461604743496 120.378248435377017 35.588197910852756
16.780807697344354 120.231792500305730 33.860835757769472
21.775305543237224 120.200100011356994 31.911551066241689
26.710363715380257 119.960558241662753 27.077123555708415
-92.018464722265264 121.398374611958687 43.243405893234218
-86.959335290698974 121.764944510913807 48.183975431163056
-82.032929451662767 121.630171924433895 49.191398109324119
-77.097807041701330 121.832516691298309 52.400820584611367
-72.015263319589749 121.845411744703938 53.599302634837478
-66.991655022652864 121.754505326124885 51.728746282526572
-62.020456375666924 121.347551509393739 43.480680007878895
-56.884721587708121 121.197993299519808 39.529097438192089
-51.989493063953880 121.043868216484000 34.728610263155360
-47.042904540253495 120.631156952729796 28.063034581680412
-41.972873987860446 120.637716778144082 28.231439483073576
-37.083034536828585 120.734803739889529 29.449522483546577
-31.956180516933578 120.654337109912163 27.070118686616279
-26.945677023737677 120.608736992903502 28.019290408001602
-21.994972566882147 120.749258612918993 30.884242976836450
-16.961855594181124 120.855404521463072 33.430075270659138
-12.034635614156514 121.004756365475259 35.622694383221635
-7.048395317047384 121.100220409253325 36.519568114764908
-2.063350530539588 121.025675044783313 37.063096874479619
2.942282283411934 121.116711161674701 36.246803106040886
7.983920639865931 121.099965897657995 36.070169176820535
12.963730512191642 121.056507857656584 34.733009866295404
18.026139780151077 120.832052386858848 32.940548145475113
22.993150317205874 120.726437423714941 30.459009992105273
28.040239377606095 120.534042209665955 24.391582048980101
-90.200512324678741 122.150422301082557 45.518805873804453
-85.211307103394759 122.310582421170366 48.920944954441126
-80.207034534341304 122.352947624043892 50.371947522295763
-75.197691612099447 122.460827214306178 53.090703825870072
-70.274898120893710 122.507700731499085 53.227570924713980
-65.291621592286319 122.415201690753506 49.879272661865123
-60.244720335787932 122.112054186739371 41.713445036288611
-55.264365612171417 121.949413103216244 38.393857966498537
-50.314682157496925 121.640426539316934 33.137031056541268
-45.189271232647663 121.352787127070471 26.621067935265799
-40.194776871503628 121.403813202018640 28.133641480103812
-35.216731148362257 121.479210930438413 28.069438856712782
-30.351632034225048 121.303809036303377 26.090719932806330
-25.243008121430979 121.386668149005288 27.616474528296095
-20.235232314551094 121.520386544866156 30.935005840076105
-15.219783009332970 121.551893694593346 33.314434665565194
-10.219918431882681 121.759116231252221 35.381510474263564
-5.384311274339843 121.841931113334553 36.364329677032195
-0.255222348391978 121.721473556049375 36.148357310279096
4.803823670831750 121.753736633278777 35.281160679009453
9.687551265364528 121.689797356316021 35.357550322743876
14.734390122356560 121.705610313066259 33.493248731358129
19.711596456108548 121.506742778560493 31.682701813279607
24.811616368296498 121.380615616628162 27.389398660290194
-93.014688245146374 122.650033600568619 41.266347671507724
-88.088075134155389 122.977355983691652 47.409056999709769
-83.030975069843507 123.116359509204187 49.495742797306448
-77.947948858148820 123.270740082894719 51.972912738132436
-73.039708881422698 123.200080821100414 53.559195675373928
-67.997942654540125 123.168791137218449 52.212932875888626
-62.951952254906388 122.899025284280398 45.781472300282331
-57.942650578722834 122.618198981649968 40.458763207200661
-52.978099947106784 122.503029919718784 36.429629278238352
-48.010066921677975 122.134990424147006 28.980687402795105
-42.940819955646049 122.049762146869455 26.373192099736958
-38.014419869553947 122.000120443003453 28.131316693241999
-32.970712158578515 122.001366849942642 26.133195696782550
-27.947293424891818 121.988826910090452 24.069938380363180
-22.955243070173427 122.028945281661521 28.099866058116994
-18.015403701003343 122.194332167388552 30.934607277373505
-12.999849028189379 122.391043051869403 33.765963703956935
-8.106338037086608 122.470932210548639 35.171713520396594
-2.946377053578501 122.454470884213180 35.913935629858436
2.045944263192272 122.476870888835037 35.210737351868637
7.068229696188807 122.272607795644603 35.183434389910978
12.038224742126976 122.306667480596374 34.070172037002187
16.953984070771117 122.254318185326639 31.266465020738078
21.932231974305680 122.254513353201460 29.523397584130162
27.061019929228841 121.695337931362317 20.856170183386251
-90.206078292055153 123.589557271878618 45.178002685668119
-85.269693232363764 123.773494847070793 48.649781974175539
-80.117766631749149 123.904207218929230 51.523044783143810
-75.335816084069108 123.865473811457832 53.146308136425368
-70.274458398733643 123.927356552503483 53.279646930194922
-65.140392448132275 123.783853209261054 49.520942471181144
-60.281411208825318 123.458960321985828 41.903205034443062
-55.178238196293691 123.250919731955676 38.954982520795937
-50.045066325085301 123.022291773322038 33.217634733480637
-45.238185196833051 122.680466043265980 25.300310900438472
-40.281756921592581 122.792473611954904 26.473851386114735
-35.246223669987380 122.650903513596205 26.448612734858692
-30.230101448222513 122.634649682205662 23.152538960530261
-25.267916788144806 122.710724358884292 25.059129108076764
-20.207165044436078 122.748564019108102 28.733983014332640
-15.288390317638575 123.001046947969442 31.817952047344317
-10.354120447030992 123.092488995416417 34.032985068453932
-5.222306618028523 123.113545092172856 35.230799552516210
-0.231518915012349 123.189385626030102 35.036394565657915
4.827729970846568 123.214628151110958 34.558297213584140
9.660286126362827 123.147150372984839 34.355485578470372
14.829602515319122 122.988401445346412 31.882234470889955
19.820432875226768 122.889351004209445 29.814167499918128
24.910429763415927 122.613839527142446 24.544478992748669
-91.925130080012991 124.228252827106957 41.530256468280371
-86.971585904671954 124.500746797433052 48.008486435723725
-82.017140564509475 124.691364445022998 51.320720021885720
-77.013870518016233 124.604204353099391 52.404345606981728
-72.058758288180584 124.586022547657493 53.173854881920008
-66.918182022724167 124.548692971990846 51.078037153604846
-61.976880677115808 124.292113297379203 43.719967801996390
-56.985114495738920 124.054871896884194 40.103073900023979
-51.958497166606563 123.856910680373275 34.955487173594783
-46.982011089762892 123.433522643709651 26.772716466559199
-42.033935152910459 123.371090057216477 24.682331685576422
-36.980514763314893 123.475885387965718 25.748726901614084
-31.894025985998578 123.340422708579297 23.596844250426361
-26.933521492585133 123.257731792144213 21.806948437832947
-21.941482720679847 123.439706926389206 25.632285686706304
-16.986528096074608 123.602952418251263 29.879691965324412
-11.986982035962077 123.750557259161553 32.340961598579035
-7.043942668838606 123.823744088051683 34.028390455071509
-1.996168367271014 123.808064282216407 34.142719008684956
3.047735919447207 123.760732929925041 33.858541630927370
7.976733864428350 123.860855531854725 34.125246889208995
13.009562301812171 123.672227375353913 32.584494202823080
17.968533831617457 123.506471976282540 29.210592536028948
22.964806986983266 123.298235849233450 25.549137921486057
-92.276582221986516 124.741565167481923 41.029431738718273
-87.180932362254907 125.130821133065197 47.604994275245843
-82.357178802591321 125.228004675586959 51.503744714224325
-77.302371791158706 125.282828068992018 52.545405726915362
-72.284471808267469 125.333657319613906 52.964827590877135
-67.312172621317373 125.238894745208711 50.824407806622276
-62.311065769696633 124.958831718049950 44.053001121674150
-57.287197317276764 124.858036821614462 40.063785500243505
-52.265842031635991 124.611509514324482 35.254708446289065
-47.222195450318225 124.291857960625123 27.927014164259010
-42.405051815935749 124.065461948337671 23.310675340314575
-37.148943087909601 124.123974925909579 24.457545919730919
-32.205405097979302 123.928282030931314 21.858045710496256
-27.158627867980808 123.917771689349294 20.246364066598176
-22.214261049995297 124.148861030883339 23.092025278066675
-17.232179846634313 124.273561591374957 27.892594649994816
-12.234979872197107 124.499518022380073 31.382657063944400
-7.217448480185162 124.517968242742924 32.972978086647579
-2.251438675463036 124.566498416993923 33.197126245980449
2.810027545361089 124.490909836169280 33.229525578624397
7.661014358615120 124.505363074946786 33.301079748409265
12.731817161575755 124.403613365327345 31.771038962851311
17.744605422160099 124.337085787786762 28.224036807082999
22.803527428663600 124.064194947058766 24.577244295148176
-91.611021797122305 125.597371365917070 42.793631618999804
-86.637304828477454 125.864741398425423 48.117606355441467
-81.457533209625737 126.066546381738902 52.150489401983776
-76.627522305166607 125.995496764513902 52.752180687712219
-71.620501607389954 126.023299220078883 52.724926319600137
-66.413333345804332 125.849806248576897 49.633640906542901
-61.509141803235345 125.605892758488693 42.557504982986210
-56.453014200735602 125.466179538030133 39.502021208470950
-51.481901416166608 125.207790315876977 34.288200367470758
-46.514000378575872 124.904889075782094 26.357293076782465
-41.492833140805637 124.732642731012533 22.531261174723802
-36.610538238942013 124.890489821341291 23.175407822883436
-31.509909746946605 124.666746891148065 20.961700208073395
-26.500395736170045 124.609935316161256 19.226186251539481
-21.418465846260947 124.763267106368502 22.619498875690155
-16.539828152703183 124.843659834544368 26.873781295753435
-11.483707303089304 125.122069308800633 30.787640733485176
-6.609296129864038 125.075871676025358 31.959423873868005
-1.459264415130266 125.085248432738140 32.409827796423485
3.507645044082247 125.210029949947241 32.553358936188360
8.472712724263948 125.197374379880387 32.184721918046968
13.486508054066922 125.024144741773497 30.687262830509130
18.446218061299096 124.911419908646678 26.738861271598701
23.448053053011197 124.626248227344192 21.009621736073932
-90.320904557671994 126.423931867865747 43.999646896494603
-85.229340601081091 126.711386940450907 49.609121409769934
-80.320924695266086 126.738243262670125 52.650113316322681
-75.216536838749590 126.687274910940658 52.843484204294619
-70.218513124797170 126.701502823453964 52.176326736736129
-65.177438595566230 126.674358422893818 48.191253352001596
-60.276344019371919 126.353696450355670 41.290244125717685
-55.301871262140089 126.137042467198029 38.108850644954202
-50.249775538871226 126.003536399681636 32.654355519514858
-45.191865016794701 125.405861515084425 23.685950140010096
-40.318653409046640 125.384705899513037 21.868873340514206
-35.303430921491973 125.517129778172190 21.021150953894136
-30.288904613629512 125.214172497635104 18.522178301785086
-25.194069895164912 125.262557682097139 18.721892619013566
-20.240167976901457 125.524069680131802 22.979677980407462
-15.267410896592505 125.614448903654136 27.230745323322811
-10.298718258287689 125.789674068132427 29.826975770269232
-5.329017262075901 125.760765338053162 31.625915737560419
-0.155810748085266 125.916765890181409 31.773760954273300
4.656430752223598 125.845436423681875 31.840660234544430
9.809712037931783 125.870995712279679 30.834735191538584
14.709538300268589 125.750591989063309 28.752267340666901
19.666033252605988 125.606844823483286 24.276614710857366
-92.481598420883159 126.968550390473780 39.247551594390586
-87.535781510952432 127.183886809927159 46.820098209920481
-82.682618035395876 127.410551374472746 51.906254840265014
-77.503822287321938 127.526404706317265 53.204623552650361
-72.496558387265495 127.446107014095062 52.372274167079290
-67.500277411125467 127.372241252355991 49.869454081864347
-62.489200663837593 127.133705893323778 43.135966787004612
-57.450126411652199 127.000945957928366 39.552118521824681
-52.513460136366056 126.737248095072900 35.033589818509085
-47.461584887203600 126.533309595140437 28.391328523037050
-42.444718160118569 126.129749251996230 20.211583030987214
-37.445678805392802 126.125751716177376 20.762185488248228
-32.503340580499390 126.027528709932938 18.330921872915791
-27.034241626542453 125.906239364813686 15.057282564843794
-22.059540539951765 125.989038850906397 19.764970383150299
-16.951440220578423 126.197276669804651 24.556386657099836
-11.959055159481970 126.435283443973944 28.365439554368404
-6.928452350193435 126.444681838174745 30.008492708612348
-2.042553482698710 126.468903341537114 30.858597564754429
3.012996376839879 126.542098400459025 30.735157045177797
7.998686606526975 126.527842304102720 30.346245067548963
12.871873674903595 126.360026167416720 29.010775383860079
18.091726976494051 126.274811048848534 24.463944686969445
-92.672781709408497 127.130515510787603 27.746033385189286
-87.682405576966318 127.831495508640970 46.326094710228112
-82.699932815553225 128.247605001455270 51.820710543554199
-77.713932085067043 128.168116688142163 53.283388084831643
-72.728554825369756 128.154307668916744 52.194916118690976
-67.670505206047380 127.976111622174187 49.642973988179072
-62.832524772492377 127.780166921932121 42.981852925262579
-57.751292176965663 127.731542198256832 39.389008994162054
-52.724008738595138 127.436587884023112 34.979098245249133
-47.787366637868111 127.163063466811550 28.795452490491222
-42.763563387538397 126.767200891511209 18.886315528940507
-37.717582893601417 126.819831222099580 19.167176371874742
-32.754272338149448 126.624638273435508 16.115403316128564
-20.191844459668829 126.739119891527750 19.769508882059277
-15.188385596257639 127.066950973929920 24.840936563118571
-10.198335451357393 127.144260312155851 27.842833514712588
-5.202323869576979 127.284699975406696 29.533415668103462
-0.188252455317415 127.188998957316372 29.787525311313900
4.776372075174893 127.218638054502776 29.419177556788142
9.801611055502915 127.219593347077506 29.162576605705947
14.706922640084681 127.096707444024702 27.027942194175438
19.780108556069745 126.871358033551559 20.742171386313341
-89.441658030678141 128.515615417797306 43.823678591378766
-84.445159813966725 128.702497241281208 50.580902123481167
-79.533499623913784 128.890485112213725 53.168899096648509
-74.425166639508490 128.866860656601204 52.567434421635454
-69.451870502454923 128.834862083197294 50.790765731234806
-64.546876743229348 128.597187840200206 45.216767948966933
-59.621631258532169 128.555789665646813 40.242769724714513
-54.582467725895370 128.190112893533041 36.294222860459492
-49.474769970796245 128.004821220593840 31.289713975254891
-44.651153671160678 127.477940290177713 19.895974610323186
-39.623368107719955 127.344417937815365 16.806148397748842
-20.525948999891209 127.352456857492584 15.454360993010892
-15.554633170879947 127.709708721688870 22.706442933218867
-10.418298584290230 127.796670648642547 26.399095748238580
-5.426439888976524 127.917438077455344 28.301596954663498
-0.433046652149290 127.949701503408278 28.654227874491884
4.521318356088704 127.985129378502023 28.446672863512759
9.499061119117940 127.875428197387350 27.956891401945789
14.565453805960528 127.869310105372520 25.675522076721020
-94.284658407244692 128.430404168919011 21.340551817763608
-89.285059381623824 129.188561946196444 43.744242362142366
-84.221871711358730 129.477801840061176 50.582869221716223
-79.323944120850257 129.442547711835488 53.214210516324435
-74.157024517977646 129.550563591527009 52.516261119840522
-69.211911091893057 129.473398097648356 49.981885381376699
-64.234236321727295 129.204607105931558 44.130644037754060
-59.265837287935064 129.060286845666582 39.612433966751290
-54.190934983634115 128.935458226034939 35.813931077768743
-49.260997533265098 128.699930684200950 30.318068478901978
-44.219035866772202 128.283848925618940 19.846727614147877
-39.229255326499981 128.028985309660044 15.202631493112754
-15.258039839480869 128.231519104637670 20.314044677811292
-10.257607289487096 128.463393412003683 24.948491013477376
-5.223435101399131 128.570588035306514 27.423387542015789
-0.259399885157296 128.548645550970861 27.472576190492838
4.753244980665716 128.536080999054548 27.308465591403824
9.675390153875300 128.644213527305993 26.847170689323455
14.835706129747122 128.410553852888597 22.300266055417737
-92.513141957562652 129.303597285575734 27.067612063393682
-87.471375122237944 130.095435454986813 45.748551404788913
-82.472571729197355 130.310393611825276 51.541762981587290
-77.527951753393239 130.220558716525858 53.042161493231582
-72.443805143732547 130.281356580865776 51.504564092518812
-67.492897994755850 130.085486524815849 48.075915738891979
-62.548323717650099 129.846417504004592 40.825436749555763
-57.418663894227919 129.714777130567967 38.118975468659471
-52.457350760125173 129.596103764713206 33.803696807945954
-47.443851773203939 129.249900003361404 26.747358100273161
-42.417028131552478 128.718187293196308 13.886852107792993
-12.020796981986170 129.108569685581784 22.452798166264131
-7.002111182932612 129.151826314009043 25.648626076813756
-1.938476156517983 129.279118601617995 26.295841185362775
2.996107814690736 129.231981120555389 26.091539689157308
8.062846055321911 129.213896136022782 26.181595562211424
12.915244677947092 129.087882976288341 22.408371687025195
-91.710592410109740 129.928896613153398 27.953057711300008
-86.748426221753590 130.851846288317574 47.637484309867865
-81.780551678376042 130.970734151641835 51.846581293989345
-76.782070167320711 130.900884034338929 52.905491853258518
-71.791142417341391 130.730442412150666 50.833474331034303
-66.774919724184954 130.802952396053712 46.489698378729180
-61.806842808657478 130.507275675725509 39.897080777274510
-56.713167497388362 130.412711184851531 37.189149840603655
-51.643226350177230 130.251472953055526 32.961675086230962
-46.765799734755817 129.959642022125990 24.282294290255560
-41.743040327339024 129.440267603970995 12.177360422265025
-5.734078593102441 129.877385774766367 24.328050727381093
-0.687353232582945 129.912004136474735 25.134805557788582
4.301915167475967 129.921486945037543 24.879338853859281
9.237135326175368 129.850497492430065 23.857649339497858
-92.939961481871222 130.489105948722312 20.792191044109281
-88.067374972467420 131.427909710609413 44.583773713771528
-83.032504855824953 131.678813998445634 50.848761164273576
-78.055085902609363 131.617038736203767 52.673230236475497
-73.077655613743588 131.709902262562906 51.251028256608933
-68.083624254856105 131.451779207637117 47.598030205986923
-63.050346118290250 131.249091385580442 40.590157597381939
-58.061149966728344 131.223096008360443 37.813272427345602
-53.016119177166409 130.955271899225835 33.631241249853254
-48.084124902080198 130.718959746765961 26.831253021451868
-2.922135734201999 130.500235785191876 22.670439687827109
3.037886302364611 130.653987646836725 22.942820061457638
7.926044788782212 130.487915047118719 21.393925815949601
-91.734533602238898 131.367644686014927 26.809561675375701
-86.753084466943420 132.274669006226759 46.968214322954481
-81.759863668453249 132.333075457077541 51.318324891227881
-76.752933782960781 132.319463918273698 52.433162128458321
-71.880306302356075 132.375421706635592 50.415478902807607
-66.750619838848536 132.171734809939437 45.570418170165297
-61.766574354096974 131.917650361816158 39.226256755716335
-56.685988668324114 131.803501624433665 36.391864418374901
-51.760181552864886 131.730441983449964 31.992165378230041
-46.747825465743020 131.253015873336324 23.258075463153322
3.226307948432037 131.044897979839646 16.837120364431890
8.758380842428604 131.115937427534845 18.923027695665642
-88.500870324016574 132.799429739854986 42.533822440886908
-83.514560130151267 133.015326508875887 49.909754979362368
-78.584441480992041 133.077619267214430 52.302396525483445
-73.500874977124568 133.160406242161059 51.112613469940207
-68.560947749269218 132.949843384488787 47.600488777247143
-63.519841008949470 132.552005588569529 40.191754454377723
-58.506039862104018 132.589768251063276 37.197652759856808
-53.551268252729798 132.463885231576796 33.068653855124431
-48.427287705144906 132.148448414759855 25.650746595593553
1.901669236274676 131.780506721245473 16.872016765718676
-90.314243626530171 133.385739655305457 39.023758914788402
-85.198275236015974 133.688749319216896 47.931207888722689
-80.248331241088863 133.743860020168853 51.351529451012958
-75.281534181602311 133.744142423382982 51.802030249359689
-70.281566602515625 133.731302027052237 49.089110371479947
-65.319424197888566 133.510327545385252 41.759533598074889
-60.284851528178379 133.295861051455432 37.670909802321923
-55.289286834677185 133.176172570723736 34.318867405520336
-50.168908417530503 132.948282669689291 29.030586067405622
-90.020935511001682 134.006319211643387 38.913134946349629
-85.067458666745750 134.356159860659517 47.595652554436739
-79.908291688405228 134.505534776534489 51.003074425897815
-75.080508864873920 134.458560415922051 51.169200974252838
-70.081670469242610 134.382501011096650 48.537152048686686
-64.995878920991089 134.070774890120987 41.241395172190273
-60.005036162917627 134.057270757596001 37.106235644913177
-55.013947600672566 133.795480930798561 33.420194297095122
-49.961629976330116 133.525723533472018 27.601786412206408
-89.892806208533287 134.853323466387963 38.865994641209930
-84.675560312403093 135.124798421875425 47.386173587719135
-79.822730612656883 135.175175978892867 50.879874209692609
-74.848150800467906 135.086495274285909 50.948562708935377
-69.828777968721084 135.054496465658701 48.217322701279201
-64.803107054934131 134.863702184577505 40.515446657130589
-59.814690266279953 134.754142010516688 36.605376904923844
-54.796683225565197 134.622063345566062 33.011078388663819
-49.768679147453668 134.326337384687548 26.568199101378330
-89.454739402611224 135.481782522352546 39.078217216909714
-84.542781785712748 135.831942213831638 47.308130903514098
-79.533444461916517 135.966310378034905 50.325704651643939
-74.433638945629994 135.786292314400953 50.455815115595527
-69.597171053378645 135.845734430394231 47.808441887363365
-64.520517824534096 135.594963557831960 40.164489600895529
-59.499817471035158 135.397812956188943 35.810131394490362
-54.535641738912545 135.157393765002240 32.191693075521336
-49.459546426682287 134.922722660302753 24.809522097956673
-88.728846447523637 136.328267000299604 40.010973744386874
-83.682227844954298 136.550021088019321 47.398098923778846
-78.699728396807174 136.645903438277855 50.217617952136123
-73.654551958181045 136.551954251862327 49.722078121649481
-68.773410061481059 136.410934264857502 46.923349827120717
-63.766562752373687 136.196111767763398 38.329377770962395
-58.790646349720696 136.050173008595465 34.883448252896770
-53.762849161882173 135.944820938670546 30.990888011035626
-48.839815530336992 135.527683598202373 19.966147420113177
-87.495496764263919 136.988213052686490 42.381679764675695
-82.423364929600609 137.252953289072877 48.021623424439447
-77.471422551843133 137.312036276463914 50.084303637941495
-72.436283662937484 137.234364198800876 48.976761615886133
-67.556875452567198 137.090227716093665 45.092478129263547
-62.486422817709425 136.971834228869056 36.417243575763180
-57.492873610360860 136.790523133718409 33.465821900639718
-52.517591427108158 136.581036783199465 28.422967863165407
-90.710005163743062 137.029844352403217 20.845368155747025
-85.902774862799177 137.823940417420374 44.438442007314656
-80.773938012547291 137.938972962153031 48.567363383345281
-75.650116626119100 138.135523459468772 49.504908163949253
-70.769432218071941 137.978826939937193 47.745672227065668
-65.606005987007691 137.695710092518112 42.350854615951874
-60.787737202166994 137.458860357645392 34.582343089254231
-55.836706007943924 137.467831162140612 31.439967421170451
-50.764545373309190 137.109519531473239 22.925092694313605
-89.425583830734382 138.156932255152043 36.843176395009252
-84.597685582168523 138.612139110177054 45.324171798160123
-79.493614137650695 138.707427930517611 48.708148094985738
-74.477837861397305 138.741044592724762 48.927381536204869
-69.486962405913644 138.672808960277536 46.688221510105933
-64.565075029319900 138.415914778977196 40.269706911264457
-59.488310779261312 138.147123827025780 33.566577962502301
-54.451864112058772 137.998442638178574 29.831594427160052
-49.475981292287926 137.634617456667968 18.665650885585826
-87.807807761785469 139.187619911194304 40.405204768731259
-82.855455432602241 139.250928749734896 45.932748045791108
-77.687167236143338 139.309171580670551 48.682747980688099
-72.851557459497357 139.241774888848084 48.271406911383572
-67.792420536326858 139.216537957763450 44.885518870897421
-62.699266884562313 139.051604818585560 36.244574069414313
-57.771574282204696 138.707414348073087 32.448376931576156
-52.748579106532524 138.656845886424207 26.391789441116735
-90.976594464345126 139.120245659068644 19.967475387268621
-86.000306102848626 139.953512357446982 42.464386908412777
-80.952374993232809 140.051613945517715 46.781314154409692
-75.929889948783085 140.041567765127269 48.138757474388164
-71.075934791597305 139.982583986439380 47.031196753332921
-66.009725896828698 139.891123302523027 42.285917146001310
-60.986022542836032 139.685310058680670 34.418162102927432
-56.038701414164535 139.604711140114716 31.143862611550666
-50.959715333753948 139.225502218402426 21.183602475849213
-89.349817093069106 140.465718540139960 35.569001884282685
-84.180012974672849 140.707028010067233 43.549230146484653
-79.288614629001714 140.795738011460713 47.108566226553393
-74.294987518415923 140.741542049119062 47.651840299569031
-69.262696576169077 140.796696267175975 45.636581403242054
-64.305128453710481 140.631707245183662 39.422426864991429
-59.176857180646557 140.338777639740982 33.259204098210994
-54.303192960327138 140.168614923194468 28.990264805150851
-49.227454270186520 139.757662209069508 13.783044145053200
-87.518108519695332 141.189193482143764 39.107688767401058
-82.474156734844442 141.400620460188975 44.311366974666001
-77.548953431266014 141.529257374091173 47.216461753811807
-72.579803558477849 141.468749135289329 46.806911180953037
-67.575305570193933 141.381268356848324 43.942784221082974
-62.492804993820037 141.248806690330895 37.044216935644485
-57.465433163559005 140.972412925258624 31.600599373769576
-52.562094696501255 140.687923344951429 21.404754791984203
-90.797787629984967 141.656309172107228 27.152313237713198
-85.755521797748713 142.005138701354412 40.674278913701855
-80.721740686642164 142.233433158391222 45.057186747306957
-75.738242424866499 142.098069918135394 46.928925904744062
-70.741896399492475 142.160411647220201 45.820559639216626
-65.819526504140669 142.008410564021943 41.401321026523526
-60.793786362702114 141.925520546810048 36.009090088551524
-55.747339775792916 141.642434343009654 29.730940926215926
-50.878948099264811 141.290756234610456 18.265425436332084
-89.442917110695660 142.370762973540280 29.090238153265890
-84.421817517111947 142.669183624659695 41.482293307782101
-79.498274177929233 142.916385883671182 45.071871743641623
-74.538619800318955 142.895053143664825 46.282284651675141
-69.380733205295869 142.861288780703063 44.860699790414614
-64.542689889876314 142.605425003099327 39.720907595638515
-59.488050579439864 142.516130970995164 34.900802387414416
-54.528652189122766 142.396111230287147 28.405414286633498
-49.575111656614148 141.941780029428372 12.057058484562031
-87.737484861318649 143.289619563599985 36.069441085347783
-82.639686703939802 143.488380575971973 42.101000228382297
-77.695622089590259 143.501236968770371 45.259788317861705
-72.702260094329745 143.597088724441761 45.503831547380436
-67.703403901301982 143.586377848360087 43.217368029468382
-62.813123846794248 143.362648200058828 37.810104259763300
-57.644949066558659 143.155699927364793 32.357732492413604
-52.715145920661222 142.962153009775221 24.854252828774978
-91.060521606631298 143.632967540087037 26.287154024476152
-85.997308754852810 143.983914187486931 37.999403602649181
-81.007406434675090 144.211255567354499 42.782644918324230
-75.995669290282663 144.225607129335827 44.982877048602411
-70.945840802150599 144.260415434343770 44.430162294152574
-65.988908225548656 144.095657931478627 40.935117069848474
-61.065322863416334 143.958346667078388 36.724412182110221
-55.991120049444220 143.777921769322631 31.220971842547854
-50.978602585907083 143.433368013480390 16.756587863936375
-89.328884765857239 144.517320229811901 29.579724412711442
-84.103098302967240 144.901768047791563 39.144722589049458
-79.137497563858290 144.975691198494985 43.127524218836598
-74.232463126661031 144.887865842551577 44.527386077406362
-69.198855930313613 145.014639036655893 43.181779637551692
-64.235906439121379 144.771016900562273 38.898527120949510
-59.286754493378304 144.687573309790906 35.086322299975109
-54.317399495468877 144.523130116702646 28.826875860946796
-49.390834126369235 143.949941724077547 8.785749215783374
-87.934065786895161 145.361957618263887 32.327942818178876
-83.080874129190946 145.491736231734194 39.546931942381846
-77.929218255981041 145.706043375505885 42.952501708680700
-72.917577173924144 145.688851087461416 43.770752082244222
-68.070768306182856 145.587047276800035 42.091966033119334
-62.950040835765101 145.377286031839958 38.002564109425371
-57.969136236366417 145.384733814144084 32.751614475307747
-52.939185065721531 145.071296693631098 23.026683512724979
-47.973372813429307 144.579010415722081 7.438385341741752
-87.700903434093505 146.057522598888994 31.983169214904866
-82.676011479384272 146.158860886615969 38.804832785025575
-77.711667732000322 146.313058980189226 42.402901350716938
-72.742776718401799 146.331370482578109 43.297744797485819
-67.853949931747877 146.332155562394860 41.491229291822478
-62.726229198846120 146.165730961523849 37.799694710190934
-57.764787946212543 146.038527447363776 32.457379297254953
-52.842103212690937 145.712752516658810 22.308887399958142
-47.793590831275637 145.318186448135236 7.856450700567743
-89.123043867185700 146.671296532628531 28.682785443360409
-84.015966414132947 146.928597813376228 36.852925009957318
-78.986720350960255 147.030554914831725 41.163683032282748
-73.972088921104884 147.019436416100262 42.546856407906979
-68.920850906270957 147.086484655001243 41.520842459539139
-63.999762379104972 147.000868138408009 38.248327749426579
-58.993081755132856 146.959162548055559 35.154017568775522
-54.068155563186636 146.567359557716998 23.627370493685216
-48.975526054670418 146.043779214097697 9.546132394082541
-91.321180025394412 147.294371274763307 23.749153240458337
-86.269511985065549 147.526118714784360 33.243324672279456
-81.269638317174397 147.613060683605397 38.401238895431419
-76.256096093207788 147.704442151714090 41.524313375256860
-71.165323457241243 147.780152770947694 41.529045107606322
-66.229238141231036 147.628397531709851 39.753554671312820
-61.305413764570950 147.600492773482102 36.929378900285151
-56.200716757531339 147.475037422136211 30.691870879832177
-51.218591569429677 147.049568336079346 14.195658738977931
-46.260388189653526 146.730214299632422 7.126372731073662
