ply
format ascii 1.0
element vertex 835
property double x
property double y
property double z
end_header
8.740620098266504 51.006997399429075 51.292307788501347
13.727932689665030 50.698936512687908 47.513311362212619
18.736931003711803 50.388121203304841 44.436908803195472
23.863429651114849 50.000849046163353 40.130082506605703
28.670797394158644 49.614852216328423 36.866015546668628
33.852942584603582 49.070060387771193 31.377786873938721
38.712994542909136 49.206642470619883 31.980958063870961
43.704844209768126 49.120049504892158 31.717051298090976
48.810977546090321 48.618857275366771 27.346881347062400
53.751348669708413 48.145591174699341 20.527724570239720
-60.054480696944083 47.606407706104093 8.102882536804758
-54.998017401747063 47.970977987619236 11.948286367318209
-49.954244682933592 50.320403815463735 36.408922644736570
-44.934485116576560 50.495862003041744 38.641027614160599
-39.987872011410090 50.544260977473130 39.478267601959672
-34.927775524150157 50.625904906186527 38.383891560016686
-29.985097917905659 50.801559389728268 41.223484460751749
-25.022646382371555 50.975901114384669 43.175936351582266
-20.005142668171342 51.181287402080379 46.091349718532399
-14.948784228162724 51.467017680402712 49.161141231353248
-10.004826967431628 51.797011869318958 51.418156395603575
-5.009000751628923 51.902538842444422 53.070083342616066
-0.030464486183801 52.060857942892291 53.852165249338547
5.066059468244541 52.017866494983203 53.186267913585219
9.924215605713602 51.743543004586925 51.440967889978836
14.981978617725218 51.327618816789396 47.159284117595071
20.005600596900933 51.128227303144115 44.628773246386601
24.985203389598741 50.541019990640109 39.326283921498117
29.991093756403622 50.258775004212609 36.599125361941589
34.978430827571387 49.861665340417964 31.231854924335476
39.932558819441091 49.975742623330547 32.263719394909806
45.074245547205713 49.779887033200346 31.257234978457387
50.022308599743468 49.553694380246327 26.848902901051922
54.978999923490967 48.863307338516840 20.135129037400851
-56.658666545763580 48.419279031260558 10.146372892627214
-51.690825988689362 50.666920408535987 32.923845263723841
-46.706279025058684 51.056941951793888 37.850106249465313
-41.707917460247060 51.362552962400407 39.262018946015708
-36.701827926695714 51.214606049417100 38.636913630414710
-31.705618358912488 51.192764315499382 37.671191282774615
-26.736134588545124 51.415140396919725 40.745238736720495
-21.758022952542085 51.832019581973675 44.493366050566181
-16.840504636933883 52.205863209021004 49.086791355197015
-11.760776526129510 52.479606282044649 51.264240964739436
-6.837698882729510 52.537607742083054 52.722265157356468
-1.827658481867087 52.794466491451161 54.512889524853342
3.170243947818435 52.700579079453462 53.518646628833665
8.291048716104461 52.538253755774896 52.068693424333318
13.288772595510325 52.302712281679895 49.125724150992099
18.241474730298240 52.006568131560527 46.317911142398181
23.106089032271822 51.606624255815206 41.764804299149070
28.332607291123132 51.223421939543165 37.811861953579829
33.285549658706437 50.795609277037400 33.074035529572114
38.263245655188328 50.520685910989783 31.936564808559236
43.173882830143214 50.705356021396163 32.398466589530031
48.262252291355814 50.354900523774717 29.227077703670098
53.247639235182142 49.783675931340589 23.392556168583685
-58.472957777097577 48.836003401130675 6.552726914226460
-53.473882799891115 49.473020918481538 12.287840242085242
-48.478717313973640 51.776622618678509 36.623336893233585
-43.594664961436273 51.983913449104115 38.969639610358072
-38.488431865484706 51.951638250876591 39.001965889236210
-33.538188687071411 51.880460241513596 37.582946130972658
-28.445615729861181 51.913153073521606 38.639227861283629
-23.560303172755461 52.245651872001368 42.521211335192397
-18.459337115733284 52.914574555452973 48.281618568570494
-13.486876336329273 53.002527876436325 50.465453362009129
-8.521919657511798 53.181213837655910 52.410743741412773
-3.414730354949424 53.444425966916043 54.122039564160616
1.454437149709634 53.406555562320044 53.488485163830333
6.528529160337592 53.218238335756396 52.795572952928573
11.423982927495091 53.186007760335272 51.171524059725186
16.378279447064354 52.751465835376194 47.235360933048433
21.517480535731274 52.566348572680759 44.403299394968201
26.541066895855959 52.014674150107318 39.536907419625486
31.554556742018828 51.712666213699450 35.955764030644744
36.449727743602750 51.269151639431733 31.544988253287695
41.420632768033961 51.424571999120978 32.626899169956552
46.471779105816651 51.263868226228887 31.070655055685513
51.539911021577737 50.765001938917671 26.206304636067948
56.540745088450080 50.191807243987782 19.514816419538217
-54.156060677125652 50.124540680452377 11.646991194321766
-49.240331241822531 52.441809955004331 35.454797118893957
-44.264277788445789 52.610903333324643 38.789630424978725
-39.385746262693772 52.702043504178555 39.227456690578137
-34.229416499735471 52.563697730198363 37.804602794975160
-29.230229442718592 52.446346347352971 36.840790723256838
-24.256283658755397 52.948933095908330 41.457782628848300
-19.169931907910982 53.474823574921679 47.698790440247741
-14.211905247408339 53.749328001075305 50.406177815287414
-9.311365849268210 54.061406166126922 52.395113980146206
-4.340649195668687 54.039481291441149 54.036152006337431
0.772554665483716 54.049276887346643 54.159055037614166
5.825099738078708 54.030116518304148 53.161010195507643
10.763247194479909 53.939113475408966 52.008462110475875
15.757695994267355 53.518143826038695 47.906553028473638
20.796798374229272 53.429128531494271 46.095742593187673
25.731445002724652 52.726172473588626 40.306236139257180
30.762779544772137 52.509105916763396 37.179593956959884
35.703428910308311 52.026000797354548 31.458956577609790
40.703553472947718 52.104688050999862 32.306405595545250
45.777685282394089 52.019411119881909 31.788892152511266
50.769603328697102 51.707448209214604 27.664810923772855
55.716192675400301 51.042102507997576 22.022570794900339
-55.486457686213399 50.654812643478635 9.922062388334819
-50.619121487627389 52.896429533899571 33.423320458543351
-45.552102692343574 53.318016952065371 38.096020715991436
-40.567394035506098 53.469762615566843 39.409987526800876
-35.449717571979541 53.359135317350493 38.429915436684198
-30.512063793202458 53.258063221605838 36.649023047471744
-25.486097967859763 53.428641346311629 39.570020010926754
-20.468261456957670 54.147245260209132 46.573227439003787
-15.514537492902656 54.553269627825266 50.743641369299333
-10.571490479078191 54.611870573062916 52.222108700692324
-5.476813120405064 54.784571628119323 53.721679317051439
-0.504460602472615 54.872101219950686 54.870380503499803
4.557086024030442 54.779832152348447 53.412306618187060
9.459401912736030 54.649106038716937 52.500781395483678
14.543278266849143 54.454759030124812 49.181761720477489
19.440356976439997 54.202499050553911 47.394213640207838
24.492328526875554 53.705682607586617 42.189856564009482
29.430537245998206 53.355195803853817 38.553020482415356
34.502479442214423 52.784376666845525 32.986979240662066
39.402446734147368 52.634200608926783 32.027230321365437
44.505883722150337 52.801755115164639 32.434713193118796
49.480895365161338 52.327391299264647 29.182172142354890
54.561752155448907 51.957224582229536 24.284268348795628
-56.762125794535443 51.091906534540570 8.482379421005271
-51.754626867233284 53.426587566419101 30.555623420131969
-46.826500930755799 54.070091333269559 37.447220132839021
-41.744080592535425 54.145598342778278 39.581079102872316
-36.789843666480039 54.059238708873252 38.693416933689804
-31.774519931175771 53.943676305752760 37.072184410894145
-26.652801747280154 53.970644423569489 37.916610251050031
-21.729209280134750 54.693522377959958 45.322320660643420
-16.657833259809212 55.144757521678997 50.587649976704526
-11.662448435867860 55.268515655704000 52.201150993502019
-6.811635653290086 55.457951733198605 53.579917345768386
-1.727984643504419 55.695090416404064 54.749237695248773
3.072216802606897 55.374999989967037 53.577305105354831
8.302691679453668 55.342482179119131 52.765627619631893
13.217017602840942 55.163457512632263 50.675929437130407
18.335198788592233 55.003626391347204 47.991088946929395
23.252339680558084 54.548159413547843 44.195998254667543
28.305105107400134 54.182446099901526 39.418140200641091
33.195795650085145 53.822161003069226 35.448534122281629
38.169974559818471 53.321906366665317 31.551300100591604
43.198049230001885 53.470127235795815 32.374556837314948
48.291758102134999 53.432884370118117 30.760556308071063
53.236400392477954 52.980470315331424 26.517363261834948
-58.122834302225236 51.556163545611703 4.131629228648913
-52.943101810527800 52.292955978889033 12.011054105431946
-48.099124172304386 54.466358038275324 36.390608570034075
-42.918565283418886 54.808165029236044 39.500389887688833
-37.919884908560107 54.774801923702405 39.291756964429730
-32.913626413655841 54.650793317861201 37.493736233924068
-28.053702084753848 54.603316775386347 36.576356931536885
-23.058970953553153 55.254096236258754 43.534254228030001
-18.007417127692168 55.754391524730323 49.563972724116226
-13.055181842342098 56.029251448638533 51.469423770899880
-7.993342918922340 56.171338338426594 53.318240909633523
-2.956120587410369 56.191622697632454 54.120808294096001
1.978854408178587 56.237969159010355 53.909663265204145
6.944679735498953 56.061610460620024 52.827030453557114
12.048003360502618 56.019169690853985 51.803473115266570
17.030664761632078 55.654125168626905 48.533693404140834
21.933532215821526 55.490042406968172 46.003769421052802
27.007566362786758 55.019460262984460 41.266268132292517
32.033299229352380 54.636339078528025 37.640261366235613
36.927073824077468 54.128772006263759 31.376855414580806
42.039484345478094 54.164186023532757 32.331755195706762
46.938581509444155 54.229844095835965 31.768899230799502
51.953961444891014 53.904052460937777 28.359806267295482
56.998270665555928 53.279327910591974 22.151430057314116
-54.190063754559198 52.892512419573052 10.433415779355956
-49.216856784109673 55.068602305316723 34.761470668594342
-44.302138075074154 55.515192146124605 38.959034948342598
-39.213350111700635 55.502757810080709 39.621579872011417
-34.283531502442031 55.344786446963518 38.064391821785513
-29.263100441133581 55.288434596969495 36.226601564793825
-24.303703790786649 55.752068545940510 41.598596431146007
-19.292899604110580 56.368013815621850 48.571120731023441
-14.195484715140665 56.644451576626864 51.385482548201360
-9.211237216926861 56.774764036100038 53.327907319110480
-4.162926143390332 56.928811337942790 53.735302025639008
0.725043166535796 57.077065866519497 54.633054689465496
5.686400066930716 56.983038161388379 53.359734339760372
10.795919538492173 56.737236497717625 52.536044211457160
15.712185079425746 56.479780086403025 49.114391535006170
20.676563123550629 56.277783124151902 47.625736460030794
25.750033544380280 55.736862889783716 42.550576314951968
30.715553514099120 55.466476677727066 39.006034523743665
35.675176352846393 55.062950240425970 33.051433339633299
40.563776261994398 54.807993949430603 31.990839770029844
45.768639394187375 54.910333781965093 32.299788868194504
50.714370783399957 54.625778206236937 29.527390037080441
55.748193202883805 54.112153263777145 24.341204049477987
-56.501757515469166 53.234060463591497 6.470136152332501
-51.454303249332952 55.402296615163202 30.852470788492585
-46.543090293921665 56.104462509907961 37.721107223483209
-41.550573297561378 56.292903119778778 39.830008940464964
-36.493368295427111 56.284524586014975 39.390219060580058
-31.529568873579557 55.992372461856611 37.191492855510809
-26.493569009478673 56.197628144862414 38.137317867699373
-21.544765435619173 56.797122896600293 45.781197674531370
-16.515107293673999 57.404259042504208 51.153678680497002
-11.517064769336244 57.607989116150058 53.079238450488802
-6.552044068757553 57.726021959210186 54.408401707794916
-1.551625409781826 57.693955713940753 54.147011151100372
3.492432547087519 57.542907525309268 53.859456090848063
8.569613682769132 57.411497696199866 52.956499076905793
13.501012902717511 57.294079693943772 50.686152961101179
18.513475563733827 57.116047537044430 48.821937599132077
23.395779220283053 56.746187068877660 44.877705720044446
28.586608612334889 56.333919371519272 40.719536658121093
33.519249472608699 55.956974008850047 36.811100482487880
38.511182372385967 55.430381078128242 31.083527516065704
43.359795131045523 55.614402599248230 32.183040693319377
48.482227652967978 55.341443096017066 30.928690198118542
53.499714576337553 55.175647783310311 27.702736867384246
58.448194181466619 54.514859252234011 20.067540623396606
-53.215053657856338 54.352814459000207 11.838926303339774
-48.234553750136129 56.593691800548413 35.718605454003779
-43.292797356604474 57.072019167392462 39.682808640908100
-38.161082047056979 56.986841572634802 39.779371332540585
-33.225668884052482 56.731757671419409 37.953717550235304
-28.252127510063822 56.645463022615317 36.649840096810031
-23.268072929954407 57.223879738720882 43.112825416333969
-18.266494230075935 57.930545432015336 50.145092544422091
-13.232296508310510 58.175200300483915 52.116573310593147
-8.203522699813499 58.436364957144797 54.653973937602188
-3.196292634295207 58.311286863183625 53.759692683543491
1.799143656430066 58.318468031173516 54.618451844932281
6.782147087184614 58.362570205708550 53.408751523571006
11.835117139164764 58.074625442406528 52.022138336717987
16.787205354602946 57.905227334469664 49.132523776007915
21.684270406385835 57.606047646179654 47.145562614979298
26.680444429402051 57.290206555970457 42.759451270315964
31.787750939656625 56.913141270243635 39.002164006033667
36.763283657771893 56.360551935919268 32.507652607179708
41.808320991184679 56.364164743557062 31.881563193520137
46.729626697490659 56.286589479990916 32.104825169922684
51.833805965459710 56.042528722107775 29.416217378509298
56.618466579840536 55.613054994142338 23.606402058075922
-55.001282744590732 54.937237840952207 9.633657720332453
-49.934099939727801 57.136366572886978 33.716554916403005
-45.042440253271138 57.656412428583998 38.814642358539608
-39.983193187421570 57.750502689845462 40.165330372724156
-34.988131387805844 57.639335264296989 38.870954302063602
-29.908372434416844 57.396883971538024 36.725900762135645
-24.983859415403391 57.758291775756099 40.442205746019923
-19.998886792614634 58.559983093980797 48.203066033298640
-15.011691052091138 58.739853807761143 51.895973369397645
-10.038048514657730 59.120869726463042 54.604643418316755
-4.896445449121248 59.053407512113509 54.522602720980110
-0.073050048089709 59.097754838540077 54.997993460341206
5.099688597700959 59.063233976841943 54.702312656521435
9.926985853341819 58.867207767719556 52.493170111331374
15.075429813528157 58.567500888987823 49.649332076948106
19.953521075209348 58.500667994987218 48.535719851594905
24.985270342851585 58.059519935696727 44.235757502469149
30.043535528800856 57.636916568130843 40.450012695131541
35.051810166990542 57.318149284914440 36.163122632008601
40.050539045136432 56.891152697064008 31.167274219073345
45.051001993807482 56.994025659024196 31.947735708193406
50.022896550647758 56.772545520768276 30.393158500090856
54.980133726491374 56.359971848963767 26.528805019782521
-57.254467227459720 55.023958063300462 3.248466155717075
-52.312329574337568 57.364893566229071 28.539699865054157
-47.127053278933019 58.239069475652443 36.973250920479195
-42.193378354555030 58.351347430561795 39.992514121739156
-37.272392346894115 58.343999442010244 39.849407650556579
-32.297266806593790 58.141934011882533 38.065045063890707
-27.293995510415382 58.142059245916464 37.442397174609120
-22.329607722016924 58.873902496496299 44.899555399398309
-17.381276757507887 59.539746729094112 51.458235564235899
-12.202900310178569 59.621010987266658 53.962949994783948
-7.291846443182517 59.831005054098114 55.456169972575033
-2.290571897227747 59.812122122679170 54.874142102788284
2.830741691420541 59.788249963547216 55.609759189859986
7.698294982226148 59.645551691882829 53.748905580242599
12.675787153476344 59.414609490469381 50.901290183697135
17.784973610014259 59.179226177570897 48.862702878803105
22.668118761091666 58.942416310944829 46.455308933425869
27.825152452411814 58.651793288861015 42.552002488196763
32.732103707316625 58.360018111537670 39.087903073563439
37.786730493247305 57.786473325322866 32.191176865832702
42.757731369000631 57.490628227172216 31.605312851913091
47.733203157707258 57.619769444204877 31.546783306704047
52.774326395701223 57.406264916544430 28.951524641989863
57.736445136356579 56.885239293613985 22.802200588777815
-54.459673142325002 56.442702789408678 10.236212748510971
-49.503900363037225 58.612467717804968 34.372903905706373
-44.482359387286969 59.166619219263616 39.299428468406774
-39.563563142007560 59.102313986059535 40.478550678955749
-34.415539036074335 59.017518125864136 39.205235241804530
-29.495936733736585 58.900107553387208 36.928065735191787
-24.550108758979391 59.233541173600564 41.276349366776124
-19.504490547431313 59.939547332372314 49.129754306631476
-14.523839310251395 60.288896713795701 52.886084634981692
-9.489553697253658 60.456560383508936 55.366292258931090
-4.396777818495724 60.494228873306866 55.013422199732311
0.468785911616063 60.574024964976822 56.023165145549463
5.457565916430028 60.575095060174597 55.456006384424896
10.573514179918096 60.240347424740008 52.308872079085347
15.537072266759774 60.131053888914920 49.880804726991350
20.424217033494006 59.900820171871501 48.404954892090451
25.580812310752002 59.454937838954280 44.485566689612661
30.448579373112612 59.157228283549514 40.604263607620425
35.451959563529378 58.795343141401631 36.529679584428528
40.475943136785723 58.336977531134330 30.658841375225489
45.434240750359152 58.238802206243598 31.901167832561555
50.529791662479163 58.187983859329037 30.256474881604021
55.587979403486827 57.921023520230833 26.387153959358546
-57.248692621912852 56.400055104543618 2.490510872863471
-52.239077094764738 58.850893567998376 29.120104936817764
-47.340803661458537 59.590960629094461 37.153602948091439
-42.187549408716407 59.870082742923302 40.208248905018451
-37.256232213550788 59.911456699669479 40.518859152886542
-32.204503866242412 59.670256927003891 38.172757950686581
-27.178734829243115 59.585783439634156 37.515494306727668
-22.297894855595871 60.368810319787400 45.101638734988342
-17.259194687133501 60.930260557649127 51.944889041157623
-12.292440386628991 61.119388601018933 54.528211528079758
-7.281990730419229 61.314647044023928 56.014493834677495
-2.253879647419132 61.177339018161149 55.934148912856443
2.822085791156148 61.361282938365200 56.211161202824591
7.748057040697168 61.279432279732909 54.650453674866966
12.756749477990180 60.808080831891942 50.998686676889960
17.693147387907960 60.628777332185287 49.158120622989941
22.756627070458780 60.439194057795106 46.668363817576029
27.665672879263802 60.167282151520297 43.071438072948737
32.765529365407161 59.684851402481073 39.614444549853033
37.682590543133138 59.055660300654914 32.717644876384533
42.768100782346927 59.018267818493797 31.150432605227490
47.737350716222828 59.047226813546516 31.370078895406952
52.701290551246778 58.814158267615994 29.038270177416344
57.710622885477569 58.227244192635503 23.275756589762484
-57.402447067077127 58.928873767218143 21.284477272834188
-52.554587330656503 59.473891682038762 28.786214186616419
-47.535435130265775 60.187979051634173 36.822473367844289
-42.376645292470428 60.535359825514526 40.385677461872135
-37.489857265437671 60.616737689334776 40.690121978871389
-32.528665077096392 60.368827356413576 38.499247029323932
-27.592496274841018 60.393957656451164 37.476931703942753
-22.473314641085132 61.007681126622131 44.685124290207987
-17.526702589166760 61.565358328257311 51.691879750442602
-12.521063216505254 61.848219052130197 54.645684835825989
-7.494103037349543 61.919322829003349 56.126833648893061
-2.484364236105907 61.982524250181434 56.117704270577853
2.536356883725652 62.029985368665685 56.666353301208524
7.455680311902903 61.817655287056823 55.090054601144303
12.549204690579229 61.497557293137639 51.378274761849376
17.475191010009571 61.354302655825478 49.302092334926819
22.501553859421918 61.231762534252645 46.957084041733999
27.501005277467986 60.847807199529058 43.710493967466604
32.556059267975066 60.495916303693129 39.791721481857365
37.468365260564354 59.959603781987390 33.702999240454545
42.447415200825745 59.716430964128833 30.553746542886117
47.532192304552993 59.664010072558114 31.274329023104073
52.477495906816110 59.453805531559766 29.304653783803893
57.543763040055943 59.093734377922800 23.611649397639091
-60.312149536260435 59.506580824695028 20.900284722283924
-55.272687245473477 59.690847322631818 22.894715048926653
-50.290927149944629 60.561221056708760 33.428539330973550
-45.217006496871434 61.166425060174774 39.050861649149887
-40.159165492606320 61.306076714330111 41.120250832026557
-35.272109026886433 61.180328683577692 40.335505434624409
-30.242092062517202 60.973714023401200 37.700765153211449
-25.225298017157403 61.319257989945321 40.503380807980051
-20.280239224873451 61.904728058582663 48.154744516821061
-15.332022095719477 62.377069173001395 53.262593915459554
-10.282104040444462 62.597858232436394 55.534222313626195
-5.353604301895098 62.609643909697390 56.079078663309723
-0.305787409158243 62.625908111718857 56.569078248787882
4.768944220761089 62.767266962908366 56.316734132835009
9.872639600300102 62.471106857526685 54.377060858229370
14.774226883175576 62.141574495397599 50.817796449448089
19.723473551918968 61.832122956942527 48.293804458600405
24.759765735599192 61.606797766005123 44.934104743111277
29.848797575535652 61.325168010100427 41.470356672362612
34.788611221860762 61.080231827524280 38.276754412072009
39.705142629718509 60.308034829694797 30.495780751040382
44.778682259541334 60.428818798596375 30.899126859570007
49.752402463765129 60.373458377978487 30.467119575578174
54.686847225013757 60.066372086109482 27.748017944742546
59.628970687668854 59.410263725986148 19.764713322612586
-60.498186247006302 60.267602657493306 22.111653754888120
-55.549048846726187 60.578598915910625 25.646094573749711
-50.451756486320932 61.311760312153538 33.320679572176047
-45.537862910506043 61.821634296689147 38.876017392386672
-40.587787750201464 62.052906171278615 41.279151079004563
-35.476527801244437 61.976052303943483 40.478372106956407
-30.480109310468205 61.667949928981308 37.940068221192824
-25.469012311138645 61.981423919521816 40.248797018526211
-20.462757490715966 62.532701788836043 47.995919181948665
-15.508682615287698 63.088184603536860 53.221501797707859
-10.588739497183781 63.314993948295566 55.525793271273066
-5.558976167508580 63.319648059115700 56.168263674008124
-0.506578516083139 63.404594359484378 56.722991639467992
4.467153702624493 63.399362645556266 56.366878089087592
9.512537770752930 63.203297483772459 54.570642536602740
14.461074868500210 62.910726943139800 51.230060561276467
19.467022350411046 62.568038269747120 48.331993824394942
24.554621362801708 62.404874442915585 45.099440352757888
29.477162183147449 62.078519407443849 41.775187254596403
34.489083252064312 61.762239066086885 38.772163154422216
39.665160729231268 61.152134223051782 30.667515620841467
44.499024428524294 61.072271011991631 30.335796089529474
49.613488172447283 60.957087530261610 30.320241326541431
54.569354507190312 60.793832896468778 27.849865597991290
59.443396100207394 60.199915558890936 20.686558283897668
-62.233800237335650 61.185592644331223 22.850302748429009
-57.314007422452313 61.374269534526675 26.599111910617466
-52.359846181428281 61.873803627829936 30.972795535071356
-47.201177907765164 62.356638815366203 37.361655973575324
-42.146455530039646 62.709054682671429 41.083712045424697
-37.222345322963299 62.706054362311946 41.285893319826798
-32.319864308892690 62.351844346139160 38.692331952778481
-27.218844306805295 62.464859910033105 38.049234925217071
-22.224044915992732 62.976256799770304 45.256428111945134
-17.224321354102784 63.740242606702836 52.164215831417302
-12.278703525476457 63.867194002003949 54.887163821862472
-7.215281069227044 64.066691071148696 56.248358391342443
-2.248636935823589 64.058265986214749 56.668300833901249
2.796422858838222 64.041331401497402 56.684961802835105
7.626975201779188 64.005853954325005 55.339076594583410
12.758668790293381 63.755188321130689 52.402408881006885
17.702584984161398 63.445247196341889 49.660543788249996
22.660579102460485 63.237886513432777 46.448538724147326
27.734744261285616 62.864017330243222 43.550238416353253
32.716315902526915 62.585337910642579 40.125282843262532
37.693598747287574 62.270585365640912 34.739035659121569
42.815866312051320 61.604463123553550 29.164376091812876
47.714544191919416 61.783934064373305 30.354442747956110
52.796525925846694 61.620761660774676 28.917143156584981
57.835630149482867 61.220350291932192 24.111122861137709
-66.007806568777326 61.720080399464450 21.611745686502299
-60.913320427125200 61.972168537184722 25.699461427007812
-55.898530213122676 62.306564748325442 29.281576154642622
-51.079903542472024 62.711310569362695 33.295547794022575
-46.028005202137209 63.084795089726867 38.522732126573516
-40.975400464638881 63.397581731846351 41.512943993356117
-36.014258612210980 63.389138311693031 41.097790800238840
-30.957172898204920 63.256281198298105 38.284172088093960
-25.983163346907855 63.339846259037017 39.754018531893912
-20.970102211862347 63.947349643658512 47.966484287926939
-16.061484687083734 64.490601398394489 53.309729260466412
-10.903624099285732 64.680232445723775 55.316113420982020
-6.009920439506448 64.791201624598543 56.208568513855589
-1.070902188441556 64.787718100893613 56.693044840117395
3.946799363511632 64.713121607623492 56.412922328074501
9.144208092332242 64.689272213297542 55.020491624198904
14.008190680170001 64.368116616972586 52.201617267617877
19.046002509227694 64.018738581727931 48.936108383519809
24.012491125555467 63.804193044349084 45.469384108977870
28.976487074110516 63.621918677356469 42.687345851381956
33.973698580516540 63.308988161537762 39.488207764959334
39.064390895739557 62.701630039281653 33.007646694866509
43.941558380240323 62.337431096041676 29.223512689444277
49.072926394748634 62.328057987020408 29.944634203866794
53.950363727395789 62.296274418237267 28.067834750050103
59.037042643420762 61.800291263084858 22.106804678028933
-66.292855258158141 62.441020497155129 22.701678357560347
-61.251998500753785 62.934301784770909 27.460858566501074
-56.069303436205715 63.104973310721135 30.462155267910198
-51.277335527187205 63.549380898799761 33.673370404242000
-46.318295592012305 63.892881116019332 38.455519012911040
-41.222697734046690 64.242848127399967 41.340216084827034
-36.273167008146935 64.271319822808181 41.330217048719824
-31.289328163837727 63.864980005710464 38.453081997524954
-26.297002661362576 63.987592156984824 39.611564905375531
-21.321838212983341 64.717638755965382 47.880428093240916
-16.229978966772386 65.259614647619230 53.318532305998446
-11.224982463837881 65.306325071824332 54.951296040532142
-6.318678582288045 65.604755460418687 56.081098837008781
-1.294593000271911 65.435935729971547 56.691652815240964
3.771084943375422 65.352159324574416 56.367118193842494
8.741381720594122 65.460642778284679 54.943059096533752
13.731140362995097 65.159008139642239 52.713469683160184
18.822598554926543 64.872416366103550 49.254684977410179
23.705644788247834 64.526551932149729 45.616770284258209
28.741914767444165 64.274444240039131 42.867075782143687
33.615136945493695 63.968384510192493 39.703133316332575
38.870994764259265 63.359548357818497 33.656709517538971
43.740119789176113 62.956393271107999 28.592838303885955
48.812661142004529 63.049400063381256 29.553192416994893
53.676981818437866 62.990136395422873 28.100842229931821
58.762071110922037 62.490463957001225 22.510189318627628
-68.600285750581634 63.116889316445352 21.397301474103568
-63.512256695831134 63.596177440286674 26.837255269205937
-58.448508382697540 63.932452672584731 31.422298323321410
-53.555734878586428 64.130134928712096 33.048483329895170
-48.474228753422210 64.537562884585768 36.692835567926970
-43.550514209870919 64.788484494257901 40.813063874584707
-38.505062550695484 64.895602240270634 41.659030344964826
-33.493039676559619 64.705317789389525 39.923783204034649
-28.574631111451200 64.447648877343326 37.974411177355989
-23.518290236761839 65.064215277955853 44.268728092540918
-18.497905070347272 65.796227856166553 52.262681672081861
-13.473414610252750 65.967417716094275 53.764312119678927
-8.453012188094066 66.065117971597132 55.634160631188543
-3.379619634411677 66.140063134134522 56.554617945711072
1.469519767967743 66.147380366106617 56.235375662266762
6.609942962464934 66.055064755092673 55.519255211887447
11.524453199592054 65.875220199500077 53.531738162375120
16.524691956156669 65.743761026346249 50.692910727107808
21.542291436052320 65.339019762327425 47.048334900075623
26.534160263455124 65.112090343072012 44.149943270628178
31.517097057103033 64.789360622637233 40.848679917916961
36.495290478514526 64.531203753942634 37.009682644761398
41.460542981270045 63.633058908898391 28.426794810903935
46.620309571303629 63.844771690776000 29.148176872760473
51.504167037511309 63.701424608463029 28.871835137593418
56.460411093278793 63.486833670673242 25.823349838639199
-72.264857593513057 63.443145880953708 17.950747291182971
-67.324224225817176 64.075365760569625 24.711058116638341
-62.222152687352725 64.556476493025613 30.307086456322910
-57.279239769910731 64.726907819903928 33.207486461331818
-52.150941974104789 64.975908702996676 35.057343328408969
-47.268280419139842 65.290310807340134 38.038315839896462
-42.283953199945017 65.589975039280077 41.084440556502948
-37.275142433249982 65.583410969397121 41.469257166513323
-32.234939667362966 65.334120015024880 39.323488284791367
-27.223618193248413 65.332244369688794 38.807787197280980
-22.265731690647812 66.034632969027896 47.147473742221500
-17.270326377926793 66.569043377815149 53.339748544479839
-12.230867537375632 66.712934154383476 54.244531908215848
-7.272566791302211 66.800007518416365 55.760089626284795
-2.295711705696828 66.892576396446714 56.793215306692396
2.725330940472904 66.767256044458449 55.990090589857537
7.721819364519219 66.776584068098160 55.078943683222434
12.729558339402866 66.606087028262280 53.416087748069437
17.716991704670011 66.282113597100533 50.089637632812405
22.784556934336990 65.941378714449655 46.068008663772900
27.672558656771567 65.746844513046497 43.392763372667844
32.740712514138735 65.441335942940583 40.019532212676296
37.756425138882584 65.042590134002538 35.616108687143694
42.776830138524758 64.308585854625903 27.710519260203903
47.713646528299222 64.363284655916786 28.884813362108201
52.697812240843476 64.455885478907248 28.095627277978245
57.808205628699717 63.967818177258309 24.255532118925302
-71.554237055141641 64.367916787512371 20.494224250672435
-66.505304767848926 65.020508220715158 27.457269501253702
-61.538023378429465 65.436012055970096 32.069731542781156
-56.523303258409463 65.697501351145803 34.490808662126412
-51.467024251169548 65.782373593077068 35.868905736577418
-46.515479466674300 66.024742085943998 38.888787920658956
-41.562041820894798 66.225624877837760 41.442435117798361
-36.502969553222805 66.309141821357457 41.467004191269140
-31.610038086970558 65.990382660936874 39.078541743889396
-26.462884312240039 66.103077683045683 39.578027573599364
-21.457387946609341 66.977688580613801 49.029932253288401
-16.530428058890042 67.457637304205420 54.048451766108407
-11.332227119788342 67.390128474327639 54.519908498928736
-6.466120682458259 67.478454320964204 55.950155682189333
-1.451475939160043 67.576471575778427 56.594518437855932
3.490507461401037 67.414901303138649 55.924743089203865
8.406248630949722 67.485240006339012 54.964525570324710
13.482048019143040 67.291614166310893 53.208831364472594
18.579721649740435 66.969168999325959 49.902912246045808
23.473091412811517 66.585389758717213 45.443778214040094
28.546726172799797 66.346845553470388 42.841979335365203
33.600816821838308 66.102823310074896 39.565062314313458
38.549833797825414 65.633321705424663 34.541367015027845
43.611145247938673 65.042029366778436 27.303252661000261
48.550475456513801 65.114450347879028 28.431694568853537
53.426222162862729 65.014112985097313 27.298403256850314
58.547322624950695 64.628945316525673 22.664193030628585
-71.772969230026135 65.148051107187712 20.869864187306618
-66.730193591606252 65.917560277753083 29.083773832016774
-61.698091801511119 66.174157492686092 33.418667744335636
-56.765830631425594 66.411446491030702 35.514434510401486
-51.781261732974038 66.453615989614704 36.333808263379368
-46.762902596671459 66.769164915170208 39.260801100353717
-41.822022168728253 66.901682077510273 41.471049074434390
-36.726081035452438 67.024696534902048 41.647798955106218
-31.805395861158015 66.782527675471925 39.412235007279236
-26.741969033694158 66.841179713500381 39.264896857748489
-21.799682857350167 67.657502066289695 48.856942661433038
-16.737674966705388 67.994771254483794 54.248064454231212
-11.652476434058105 68.017031242455928 54.487520444914395
-6.709339611005723 68.240586271501328 55.939285734043303
-1.747209209397604 68.233288266161935 56.585205558016682
3.380966557358684 68.099364364593782 55.832432503265096
8.212773315900051 68.134524205038460 55.152732800843090
13.304375162725663 68.029446206235477 53.331536449397547
18.175394053295818 67.777612327648555 50.447821907213488
23.264899879888169 67.387687953659750 45.911350684492682
28.233641493098194 67.133135034316595 42.845164719170839
33.295917077540196 66.890633500853525 39.753349957681927
38.191908553687199 66.483527686664942 34.943909730611054
43.246508450640569 65.681835912495586 27.055951006348256
48.280779202777701 65.758717537972288 27.853934309229306
53.280319714011547 65.828809233747251 27.111235305776106
58.357011565372218 65.342445388919216 22.756981024790527
-72.035833507920827 65.948460947386437 21.580313242444390
-67.032589234991335 66.627733792925909 30.142908028868710
-62.098153929769090 66.951264886632245 34.331755893814922
-57.017753067619843 67.221382443238880 36.269446919304855
-52.029534973716451 67.408149112531177 36.893071770754297
-46.922909198354404 67.433799652285884 39.520079065250115
-42.016710576722097 67.807050371720607 41.498473918896480
-37.133357512601656 67.674538607347657 41.666320299639430
-32.109282853854964 67.527584594189520 39.787813994017675
-27.064797949993935 67.498019326315472 39.555511227518984
-21.988312307054567 68.197643063948689 49.323248204886191
-16.951762007825042 68.775253089047936 54.260058480726968
-11.921256903825938 68.761896960905148 54.576147605971066
-6.958505216300116 68.841410590355210 55.994586999818459
-1.952312661189838 68.899960513460286 56.755152761344490
2.964024540142981 68.866081072362618 55.868772872591769
7.935728700276415 68.800004440530117 55.367237090014903
13.098459061645148 68.665980810105239 53.442129439725186
17.930502084503399 68.538095980162112 50.583387769446830
22.939790516078045 68.044450276815155 46.321468347697618
28.125463049992366 67.848341384612937 42.800632888278471
33.028363180172931 67.563969417825646 39.941210893270409
37.884440069749409 67.166476745067996 35.321376515466881
43.037704220869252 66.386389154228496 26.762533679578109
48.079456517404942 66.434270734397202 27.515211721661156
53.017127598203039 66.401917485814181 26.965036961408096
57.955853349338973 66.120707771771094 22.767751587433509
-72.183138325294536 66.598071777963114 22.084112149038511
-67.189785604693057 67.610619454068413 31.630262420671645
-62.276315844155022 67.794497333130579 35.034219013503062
-57.253971050128257 67.878115675186436 37.104564817439943
-52.236011796408562 67.963346299256131 37.275242209773261
-47.203305653133306 68.225249255535488 39.818978401518692
-42.400129003808587 68.502725032232249 41.538695104770810
-37.270438551835547 68.407291221379268 41.660393949489297
-32.177783716170389 68.174950423195554 40.028431553899011
-27.205422884503264 68.300681692944679 39.561433115357083
-22.240873322704591 69.087939475256320 49.539320616683256
-17.252543367056969 69.461691070244385 54.204586778102126
-12.197617803752735 69.475963389895483 54.882190869191831
-7.125869410808551 69.684590930300473 56.296869881973372
-2.346654601276918 69.727403232615416 56.764258280163588
2.753494203646432 69.648877758480864 55.801198090643517
7.795785362007873 69.511377955175050 55.498326356868468
12.695562766348850 69.426678978973413 53.440359554303456
17.733619228921327 69.166529101771644 51.132511070911555
22.689833125078302 68.843100462952421 47.131133889077987
27.658948329647352 68.474999907597521 42.927213724171651
32.691596001639617 68.318737254185280 40.176729737601811
37.721392707279264 67.796499140423151 35.753579123719184
42.750343499148443 67.086346102894822 27.036668632764911
47.709445643425894 67.112512528078099 26.769160172763062
52.829676212537500 66.937249699818707 26.599203636305919
57.774479075512687 66.731323417093179 22.655836807318568
-73.571510970703855 67.206979864879955 19.627712046025945
-68.019153167271568 68.265867727724711 32.137265507859567
-62.945850457411971 68.564658845963265 35.682268531187624
-58.037894269299215 68.752693585196482 37.467709765069017
-53.044448778506869 68.717304303142470 37.868475185575782
-48.084650382827625 68.878657621243391 39.632906498210936
-43.103354227935625 69.160764998246719 41.637832390869079
-37.941848347814179 69.139632170977691 41.669160465329924
-32.944597066350880 69.076467420410154 40.479489076101537
-27.993407979777249 68.854899855084014 39.221764190298337
-22.820486454517166 69.730823314932735 48.490583279970856
-18.095527084946223 70.080685993263089 54.067168794008175
-13.122328394144217 70.143390142729288 54.514174717033043
-7.920285981488055 70.347424963872470 56.690309115236396
-3.000064963779844 70.503691093345495 57.398749183961911
2.015053274347770 70.276410203461467 56.272294215406596
6.968950820685529 70.343535091981238 55.842839227062086
12.031364161798448 70.136891071130734 54.094479339353427
17.075237437885963 70.023745096674730 51.573714150517802
22.038416041550271 69.677930120113828 48.472630409492922
26.971536757608146 69.290842419003624 43.191377264309835
32.007386633317431 69.028830566705068 40.753744844214779
36.999415697442380 68.614884945417629 36.246091938035519
41.891760794167133 67.876562069928738 27.839587692706623
47.017995814200667 67.774495570141994 25.934666488491146
52.079139346613509 67.718162994826514 26.180925789059611
57.005070051579146 67.513965866938136 23.305293810503347
-73.284375912442712 68.424033741393202 26.042684252847234
-68.194128023020582 69.116885124139273 33.044304893470098
-63.277008450324047 69.240337546809272 36.158270379343307
-58.262470294735316 69.470591846611612 37.960170817517593
-53.142337271432083 69.588258519529631 38.269283798880572
-48.221313340352843 69.713005942481544 39.759316846545957
-43.283638078174320 69.731219972431163 41.982759714179288
-38.235722247163565 69.783523701230152 41.781339320343704
-33.252379923680905 69.648935287152241 40.951447877603570
-28.302903762059312 69.746407210365120 39.736055121672884
-23.274030926181638 70.297605342987993 48.387457431574212
-18.295217670732033 70.798133102250745 54.085122788057731
-13.271651835430324 70.985904985563494 54.762548294239167
-8.303505103872102 71.149296949587310 57.167281721747329
-3.255112059365288 71.184635408466605 57.775317728826892
1.679951785695129 70.875521740510706 56.408123955410346
6.757580559249017 71.036100463015629 56.114996697731655
11.819878476564996 70.841478109242757 54.163218033369532
16.743894462693955 70.675362836823169 51.834534547000025
21.848828532880290 70.326062765608967 48.791057551024117
26.768179549302001 69.950170225037851 43.448463221353336
31.719151879518030 69.707155428316810 40.933651598822195
36.715320112564171 69.385780796625156 36.499546917916362
41.816965706698312 68.689691840050415 28.275526220929624
46.806011549061921 68.390731066247469 25.031745811389140
51.819547602636639 68.476445000298298 25.774741084422413
56.738897006190115 68.142761187277230 22.994054461236800
-73.954483407433599 69.325907251761734 27.097177940319142
-69.071770720365549 69.704728280457417 33.488250280496274
-64.100466400018931 70.093839784400572 36.400908634485610
-58.973198780398960 70.202580539553821 38.461887113827579
-53.908038595141370 70.242424784589076 38.617453825049282
-48.985341445957751 70.344764991175239 39.447521737822761
-44.081070486349475 70.531790907148078 42.124562734611345
-39.035023561974754 70.549033166158708 41.948019934638360
-34.044890207069237 70.529128807444224 41.279791386442398
-29.125512555106312 70.354033524249303 39.784036779586103
-24.027409802952370 71.039231167300031 47.568420865092861
-19.036175123428659 71.522759792969921 53.986385624962594
-13.993730675962022 71.561866606198066 54.871761968065108
-8.961278140549211 71.827936910571879 57.125467197906062
-4.029005877299168 71.892628044403480 58.264415369931413
1.045851500898203 71.725307127520296 56.820480003521148
6.042982718963625 71.707313078204535 56.227437688555149
10.975195550362772 71.507493445105098 54.574941717894951
15.998556131425310 71.347616682003519 52.228730200472413
20.939364153790734 71.144000090245825 49.657868102765505
25.898374550370875 70.685659240392397 44.197641798113622
31.019315164058568 70.429780786998293 40.976074200530007
35.931038414949185 70.131940982567443 37.246047655912960
41.022767523944005 69.405524291457652 30.303173759905516
45.940915951216553 69.063111874585914 23.910413140704758
51.005060807154365 69.121092863497125 25.303352324699759
56.006502549085688 68.906124855622295 23.079490925740991
-75.690728220466994 69.650799387408682 24.034483714408118
-70.806959101576084 70.397944949879360 32.832010463256658
-65.709756563737713 70.695060349169424 36.249566210634420
-60.738207957989047 70.890585970264723 38.341849538352896
-55.781242251813133 71.025831623925654 39.342055760832629
-50.770532464159054 70.978117296380816 39.134081307180011
-45.714118532986411 71.176782902061760 41.744780116219118
-40.777430085225937 71.151368171500465 41.761745891650868
-35.642412274241515 71.231682540280758 41.798583517323330
-30.659028048960348 70.962214103509851 39.900653901536572
-25.695051206173307 71.404510706238995 44.454133565342858
-20.746317443792602 72.126266597871123 52.793739386634769
-15.671230455351019 72.304664932885075 55.216392691124589
-10.679322722544327 72.385841728657311 56.458473277786211
-5.635371241677230 72.546915737247460 58.404059291731485
-0.651907806657076 72.579224829704984 57.726289146111803
4.226509103637202 72.415508750436274 56.171188392786298
9.299786842798246 72.450673037065329 55.507498709754458
14.344787567662156 72.233419604323217 53.461050377934725
19.288385422145193 71.967451125032625 50.719428356245011
24.313494285810343 71.695830900345328 46.959369061315641
29.187104196479837 71.170282645933312 41.933377873993891
34.282563912681788 70.999095354739509 39.218271700628449
39.154551302587130 70.497448443707015 33.756425238144537
44.155995217050915 69.803297360756162 24.616459755806620
49.235742115277311 69.665075744705874 24.398651133592605
54.333515042822057 69.653279660672581 23.737224136699613
59.263866002256556 69.010968758505527 15.666733870194635
-73.908319494973739 70.891172345921717 29.814941973839886
-68.991167242932462 71.428169732558032 35.270728120079099
-64.034982254593686 71.591388170211758 37.701693550521050
-59.099447850658876 71.636326620262466 39.756001155648235
-54.050201219677881 71.811140276901966 39.937877313075859
-48.990875924187065 71.782175200749876 40.373993087908410
-43.895629976740722 72.036739536815361 42.271814743357240
-39.026701349640305 71.901184928122220 42.018684573012358
-33.958080042616793 71.937423355870081 41.368069575261970
-29.019340147537324 71.679216254972431 39.920355340497828
-23.939592090802780 72.491681424074315 48.080408541506685
-19.060807289100069 72.978081316890552 54.317536936664638
-14.131675943154807 73.069102916740107 55.670602188978236
-9.035377038463331 73.117639680137131 57.270578859066177
-3.977291873391422 73.251169827342736 58.530567582594202
1.013407708788296 73.162622919359336 57.141476692882939
6.108270063889445 73.026938687766588 56.450976580353412
11.046142032814016 72.854840949055529 54.637079704684062
16.057326183070050 72.725764230285790 52.065380458730552
21.023029920247378 72.613499942424681 50.219024301457488
26.060994379140219 72.125700280244402 44.893858217886262
31.125580900178214 71.880274106915962 41.051939139563785
35.975504218220685 71.548955669678790 37.532561982327735
41.022215759372187 70.910534421509027 30.517734073119350
45.932996866594941 70.365665809023838 22.692547173399884
50.963506312377277 70.365257774778101 23.887800898587702
55.971801925659342 70.316180934528546 21.741502015702331
-79.226532860145326 70.622947194923526 18.110441714209323
-74.240142059408967 71.597510154574579 30.664530540487540
-69.203323529522820 72.069897166474405 35.959771738178297
-64.252899367153404 72.366922141066524 38.486641799999937
-59.252609362739534 72.467402630586150 40.262214310654919
-54.289170602939222 72.466366011195873 40.337024893711934
-49.179052062849038 72.579937081974620 40.919283438075240
-44.319209341712714 72.674869097210234 42.461736617107974
-39.140968037560235 72.530758753865129 42.069357020895829
-34.232738784934931 72.588828932726003 41.542402415974060
-29.181630402213855 72.476703234865738 40.216657828495137
-24.222604026765740 73.102229886476621 47.964036758925026
-19.240756131523518 73.563595901944069 54.184181414847366
-14.172631872067576 73.683607058727375 55.952840041573388
-9.223391103324362 73.781789371332891 57.210384976473613
-4.246070761402261 74.028859313959359 58.769851191646950
0.793159783180273 73.775571400713815 57.602141023765206
5.680947467358777 73.838309195766101 56.492733550284321
10.710045508126402 73.662487091898996 54.851981617547168
15.819617290392227 73.532879270395384 52.562229637987407
20.818639280783149 73.466958101605954 50.630438362260350
25.744116724314004 72.930248578547648 45.301153659676388
30.761901516423912 72.629063698793217 41.545265038794909
35.766088586305244 72.296232262465224 38.179389545472041
40.689190319096625 71.723627153279566 31.093610245421299
45.717450345262947 70.891538195916453 20.964313739367892
50.679565240245573 71.156578974669756 22.975435906405838
55.705124254362453 70.731389698180536 20.911393928232741
-80.054432855027983 71.259300940352034 17.749457643450391
-75.015120640448231 72.338164380313685 30.459807016536530
-69.979083154481359 72.792429998236386 36.079228473737153
-64.951388638165383 73.072475904221207 38.635514212636338
-60.016896300893919 73.227957541811975 40.672274498586411
-54.930678113008760 73.215133882703853 40.869347996160187
-50.051352467046208 73.301946696505070 41.679606617129906
-45.092390378775278 73.471172446602822 42.373840376007209
-40.001389224954863 73.429943743096302 42.247163219195251
-34.917398491509090 73.247196604190506 41.827635539584193
-29.946875731610266 73.180817727971316 40.338827931004786
-25.089541488458405 73.832857338226276 47.141866836350452
-20.057570746554489 74.362613509487801 54.090776065250260
-14.959943005521547 74.441203451985515 55.934125048527896
-9.994530698826313 74.482438727979741 56.764698544486265
-5.038018196343308 74.726036469154849 58.602792465080107
0.037635794401831 74.623962113437130 58.128614314013838
4.890129429015883 74.460014340873116 56.612400155117356
10.083591018331493 74.358063857835376 55.460584158623661
14.933501444596804 74.287950747007287 53.242285276186777
19.999484530011326 73.995772067578216 51.229230259547407
