ply
format ascii 1.0
element vertex 824
property double x
property double y
property double z
end_header
-13.247458467469109 76.788703789902073 95.975557490310081
-3.610854674207893 79.745060881480995 99.904132449213378
6.009050029679138 82.491508810430844 102.497378868877732
15.587350916253815 85.019999658777422 102.701051046326754
25.294251823144354 87.645889275928369 101.937434571548764
35.014821808450094 89.931517350391928 99.045986165841256
44.795070407632686 92.187054332236897 93.682456560896966
54.648065813173275 93.897322482171631 82.061676618019845
-46.443196726002583 64.603831100574297 47.716611527585727
-36.917283266765480 68.078348317178722 58.315382464344800
-27.447505885774305 71.055234989620359 64.312409049824083
-18.389979314759167 75.520419350777658 89.846485404169115
-8.902201516943054 78.862999688644592 97.616348758166637
0.800255022793506 81.613592433897651 100.913615260628731
10.324942836431280 84.299643480496641 102.866913031445506
20.065982866206763 86.866290703963983 102.144832202011784
29.743194460979765 89.379774917402955 101.046035155128379
39.509871261964207 91.811834885717843 96.981861429232595
49.229475721470983 93.747727833493244 89.604093365413462
59.343989014170084 94.654629939596461 67.598197619208236
-42.636597534918273 66.688804419261402 52.148427762145900
-33.184938829392991 70.191329699473840 61.310430761559452
-23.990946558729426 74.305642720550324 81.919397924590939
-14.625829257952464 77.826480561919283 94.941653945556624
-4.950532792232915 80.746504577972274 99.152324456688689
4.696894250743622 83.473542181462818 102.499691869768668
14.312174972894546 86.177981200017499 103.071250804883533
24.051425009142168 88.788649160236659 102.456745664461423
33.751370035717130 91.048486024501614 99.738308308511165
43.505804449163378 93.283439434486553 94.619038152493331
53.325295215103807 95.014673374612613 83.443647370535388
-49.106256538573270 65.062218070243063 45.500255758856305
-39.739077593165881 68.527220053420024 56.026941858184522
-30.186141854954371 71.735361309625191 63.326417958103029
-21.038706840096363 76.141252402246892 87.795205338614096
-11.551716798263485 79.354769456904918 97.232867811177243
-1.956565452920735 82.335982535913956 100.427540079280675
7.587253906186056 85.027854417546806 103.087944847438166
17.417125573110329 87.514751123796415 102.571067972626679
27.002988238556842 90.056696449972392 101.680438238986241
36.732905225554468 92.503861753805239 98.384982825967441
46.515402910258800 94.597255418282330 92.104224254606066
56.386575527999113 96.008955352143488 76.399731767232339
-46.368693342253358 66.985312653823968 51.030968921358792
-36.683142559856783 70.284266932127011 59.560418767570049
-27.302915685696583 73.334895747671766 64.580925671107295
-18.144878379890471 77.926279303849896 91.385801140809136
-8.692379701689610 80.950911555670032 97.749672810774044
0.926577034119488 83.753884921863119 101.258349607747874
10.565280148712233 86.452931262266304 103.068085481999702
20.278443651234412 88.992383825142554 102.514139576361075
30.003906366811758 91.483043388871167 101.060485798355657
39.675516528335891 93.836086273176917 96.631027764709799
49.465254242333309 95.923253417461765 88.258424777693961
-54.104601406222301 64.484026945883002 37.214675385030255
-44.715032542312166 68.357996262228113 52.798908793028239
-35.363437541731997 71.665797710991029 61.026624675429645
-26.010155198649691 75.647090465904100 80.451498014996986
-16.654871847478713 79.063241348976689 92.677556342624086
-7.000645932887327 82.060709478475388 97.731305548549059
2.527146272233264 85.056554586774325 102.075009931921073
12.085637000135851 87.672263116667253 103.301776463552258
21.790891142787629 90.038832179942460 102.587064886760075
31.510382820491181 92.599601523573540 100.549840144835500
41.240387675730446 94.903300382128720 95.829993945601885
51.045959441232668 96.797877398806165 85.921119914083221
-52.768140916500876 66.033576722001754 42.713406250356414
-43.314134526664319 69.671638691353706 55.281432572665445
-33.898102620791271 72.814528418139759 62.008460741414808
-24.591899873730092 77.100605742069249 84.835138738032427
-15.204263413684444 80.456656191383885 94.198680824208196
-5.606995451840607 83.267741648878740 98.368710656621090
4.094981764996206 86.070503866093418 102.430736830219089
13.536453123839912 88.744976022967322 103.400749116188990
23.394727791419982 91.242220900995079 102.711813959552003
32.923432640100465 93.731531474348756 99.955968973902642
42.797772538065075 96.046943140033193 94.749697317887836
52.480824564976686 97.675419660821063 83.209396400575329
-51.845501289287689 67.361897550572706 45.829084671942226
-42.248277233200838 70.811536412646262 56.796263082193519
-32.893369443124982 73.841048802664389 62.532881670639235
-23.658143347423575 78.255585178879244 86.743127400871160
-14.140700455718367 81.403018119107344 95.263865101767763
-4.550984764995288 84.208986880392189 98.975329022534680
5.086952472534197 87.133525455374098 102.794793011722589
14.640638891258025 89.772482664445874 103.238818664476483
24.249924674989142 92.320613683830175 102.424487212316791
34.053797275190163 94.586089334295153 99.441553532439542
43.875299725087444 96.893360357348314 93.847401851490929
53.709589804425121 98.542676760624360 81.261215566690908
-50.854426724069867 68.463893818788449 48.706450914615438
-41.347501627604764 71.946573969872915 57.958751363305076
-31.856472372463472 74.886385784346174 63.259547327718046
-22.544308042591929 79.195084308374874 87.766388181691582
-13.283160508912072 82.415052436942247 95.497031102148426
-3.586431681987962 85.301174748876605 99.601337621895922
5.958230520861953 88.003420007185525 102.775386252047184
15.709798494346181 90.683126584712141 102.860255783146471
25.325796967758009 93.184262953571064 102.352102807376141
35.013514935751154 95.602887511106459 98.954111720340535
44.913942818324657 97.745250663333465 92.826707502053168
54.803152643194331 99.300378891103179 79.257076247778329
-50.230032787351377 69.668698702121702 50.093832613141664
-40.998873706445664 72.759077281917016 58.430364538319331
-31.351274208436791 75.809842773675882 63.533430760357660
-22.142170583546413 80.084927340557243 88.224366062832885
-12.602412194237260 83.098624225639924 95.927623797183500
-2.983509140199185 86.122638510832004 99.805149416103561
6.671673769955202 88.893838491192767 102.695225755336139
16.200271215541491 91.388708020917434 102.757772543294706
25.853711642295970 94.053240724215641 101.955244946927749
35.711506630691403 96.451413827461550 98.688538340584913
45.431020962783151 98.583005904519027 92.119011601116298
55.392877036982057 99.998961724479784 77.084178976545473
-50.733103628301265 70.117843494386818 49.958623711905304
-41.335522987641518 73.390668519888720 58.517018564058972
-31.764664255480007 76.409645482336117 63.649840598319827
-22.594290905525430 80.801220114868428 88.103377481439352
-12.939762164587684 83.895860521770700 95.618759519828046
-3.457951668553612 86.682662071013795 99.868245573783625
6.264069333487186 89.492582944756506 102.491502599461796
15.839738831085633 92.102999182857772 102.817534277003276
25.457782545643663 94.519401034408304 102.091235229185259
35.227687018886733 97.089050371025991 98.822020800241702
45.065496570775636 99.099270557674259 92.370121894159226
54.981067754253509 100.629766688993016 77.755223608052745
-51.631725648448189 70.643146019559225 49.306632189545830
-42.195869495828404 73.909044061620520 58.352994912886089
-32.603403793927271 76.786313437902606 63.278118947954155
-23.436460670388023 81.159149194883184 87.750142844537990
-13.869893424771682 84.271190561869645 95.102550371676301
-4.192172123813435 87.096491889438965 99.863383470853748
5.272022360878818 89.843694277273727 102.097209108010034
14.971996412779355 92.545856578990097 102.848318294924539
24.585449290186219 95.067991538333374 102.095981286494862
34.310876504574722 97.429481742931472 99.250318401471375
44.089173272638206 99.590588248259422 92.846743707168770
54.003859098483581 101.269258267578877 79.584287792208400
-52.564019585283972 71.058996459983206 49.114605178282083
-43.163169251861497 74.416733811525319 57.968398980066681
-33.614546193023273 77.313558608589233 63.415821207614805
-24.419462897550208 81.543549920422990 87.587192915206202
-14.878402352691033 84.727747595326250 94.340929992526014
-5.217351539770265 87.539697580867639 99.760640942040439
4.435862849219426 90.257150706059790 101.500112698942047
14.001041085616034 93.011918137131659 102.826122558042599
23.778897434606371 95.657883975482036 102.245333455042925
33.371306831925992 97.984573805327301 99.553258823008520
43.290927709243732 100.107538565925438 93.447562059153938
53.081997364725545 101.834873076468142 80.880459576550791
-54.415592317637177 71.174088462729230 48.047231214950152
-44.956715148755606 74.416404718567691 56.816717264940173
-35.327288794334891 77.379912420100624 61.977747195063060
-26.159980776290134 81.644099583039306 86.898463828021079
-16.720501148117812 84.665247533733805 92.811416665929343
-7.145994414156142 87.775866099769459 99.582993932157521
2.522606824260109 90.532363176294041 100.689144150439716
12.150472583848344 93.158001993400262 102.945480217893788
21.777911456263141 95.704373412018683 102.407844155089009
31.618117534048427 98.221716887642501 100.181374219307671
41.259038960554761 100.413055541616885 95.094915721577536
51.129936600156121 102.247690783047773 83.375551400939017
-56.671737340890239 71.058141992302481 44.291407827931323
-47.318790555891219 74.551727460458295 56.224179464374643
-37.610993470544159 77.357988698863139 59.728942591675214
-28.515857412696640 81.667787199308322 83.243755004040665
-19.020639573888982 84.746827611210463 92.070189129581124
-9.448737133908436 87.775095760381561 98.647291886037507
0.256801098365258 90.529625014733739 100.691807785322226
9.862791680461271 93.302501713059272 102.776712615956967
19.345673672516050 95.761701355274809 101.764054628666727
29.213813285477013 98.242673460359526 100.585614342556454
38.816227638377484 100.669997785832749 96.549193199189688
48.726845372552049 102.491651406664488 86.346983885328740
-59.442249528540046 70.567236882311036 38.516633021841010
-50.085350415004548 74.120615541946080 53.504284496825946
-40.437487084965099 77.304539284880491 59.125365925861850
-30.991913274569825 80.343095908057592 65.014195239159648
-21.744767945347235 84.576237372585538 89.942536030013883
-12.217330205710276 87.602090905894897 96.952574147348130
-2.605484755142278 90.447044828626630 100.742655903768210
7.141836187282802 93.146151245495446 101.629615969577046
16.642019501157321 95.777985755677435 102.461197238332431
26.396864802325670 98.242792941232238 101.564036015931151
36.002688302938097 100.645998581625975 97.669515465363858
45.865564048091215 102.733661976707893 89.721035151027579
55.903792498585247 104.011253178421384 72.238977899927619
-54.777935889351951 73.320048346051522 49.805720686849952
-45.142160517233471 76.486639469617927 57.264658803637147
-35.643028015185990 79.726661497096302 63.207997916567692
-26.399068752572905 83.771800409507961 86.732962904806740
-16.891905259677504 86.700817482605174 93.054591445980876
-7.422840142581114 89.826177850251270 99.645509772791783
2.224905331625003 92.445000635229619 100.618947418513784
11.902890987955022 95.211705930492897 102.544930069971443
21.494262198244542 97.788403358196277 102.676482613002861
31.144263081135573 100.102711668955720 99.837011143224331
41.038662211898384 102.380056154939524 94.512056342417878
50.918153069910488 104.231709173215265 82.980232633834817
-58.967695159428665 72.532691374457428 42.756368531503220
-49.372651541618012 76.161856727296524 55.423997016116886
-39.865428513593159 78.912769520231762 59.909231788417358
-30.404779705935226 81.895673709430909 65.046771369027496
-21.151358408958075 86.161183367614697 90.328603133873685
-11.708132183989498 89.122287609215860 97.287013009185230
-1.880443635026207 91.977370356826739 100.874757453859701
7.786072404192552 94.590971198209317 101.522446723606706
17.204207537728728 97.177501037236738 102.049834673694548
26.863231465388765 99.805437057986808 101.290957510088788
36.716556840842415 102.249629312788599 97.099298469323003
46.545578560306751 104.100453120912476 88.328067238618573
56.439932820432098 105.514710053949912 69.527408136821833
-54.579036734733599 75.047457061141586 50.497148955443990
-45.127146100588497 78.183507518704090 58.544362022780405
-35.616619410688251 81.152476038347885 63.884738807584590
-26.388955683416611 85.173131726829340 86.548898065826435
-16.771904167258111 88.281675905884811 93.611436722110042
-7.259265657687807 91.275614322181539 99.534492347456109
2.395651904036921 93.858038089528549 100.697237015469895
12.064235485339598 96.615232119218234 102.808024397127895
21.689628831396277 99.173244768394568 103.001766428600590
31.455819839456435 101.673375756330870 99.515696197183104
41.176028270069359 103.832970198518183 94.119939135614970
50.935730486654371 105.766465190293147 82.108048266739956
-60.232267005421988 73.540625095968863 41.677747395489632
-50.841948990827490 76.996863903638115 53.496363189685589
-41.218762521035451 80.156430454034094 60.544257863784281
-31.695858468854894 83.015317235603348 65.222942289547589
-22.403717052557258 87.154346917829642 89.468329429270341
-13.062577381960210 90.252814487710438 96.017727889077364
-3.366978866199121 93.042718707259084 100.600782739639627
6.359712809138674 95.679248157545331 100.557047692508689
15.947019414841826 98.414697402931083 102.201947624077576
25.675581429618028 100.813873593976197 101.847338816139853
35.349973837433964 103.130533810577631 97.495029700965333
45.097918508366114 105.291414119666413 89.521071623843341
55.082567238576999 106.780889288995468 73.182998440494998
-56.479515640098597 76.037119806590695 49.756036321671644
-46.877289726214059 79.030788970053763 58.246272579091404
-37.424183555305163 81.866899836206485 60.252965959651043
-28.094335889680671 86.015847232142079 84.108799014101336
-18.549052709555692 89.113101856071594 92.457109268273172
-9.004942453847452 92.014634532598819 98.369142548343888
0.453492037694211 94.850018984442428 100.901332814601744
10.275600580692259 97.437107723254726 102.347408527483097
19.925742308154792 100.160625368781538 102.560620883683796
29.662302356815420 102.501313755376088 100.132603463823202
39.378643598424311 104.774616506327433 94.857900582969165
49.253963487973280 106.675804694528182 84.001064285949795
-62.374839795234905 73.961280541306351 36.948555796173039
-53.135153099587349 77.764509231987546 52.094315772994740
-43.569408839600783 80.986672834840491 59.900475433450168
-33.911941021639578 83.771869098525826 64.744823423380410
-24.702690621333666 87.911278913922885 87.689786805756412
-15.195286688741220 90.838169240958635 94.597286497967914
-5.594262248703949 93.721020354425306 99.540655299622230
4.117457753249525 96.388636970515819 100.707401408407591
13.714359376718853 99.182408680671656 102.439105694275426
23.331020197536116 101.625373701706053 102.260912914438251
33.029570323549393 104.125708030946797 98.370409730568724
42.863975322066139 106.140281626505015 91.596247711551882
52.790380129724788 107.866893223940039 77.895629021851434
-59.165627475734155 76.366596737039998 46.742525315472918
-49.747024156238083 79.724181094421567 55.980827512542653
-40.135105038852707 82.600892221126614 60.500064369504223
-30.535847674543973 85.602001398225823 67.777593904918859
-21.240895348543489 89.562742332167318 90.155723455325202
-11.644694462316266 92.587350553209731 96.555479617307299
-2.006739913645632 95.448729087108745 100.486185841998960
7.436066447546654 98.049904457809305 100.544708365931243
17.229842659288376 100.776586042776330 101.892105417607240
26.871259442047510 103.269208779143781 101.115806440574090
36.600252471482904 105.502246041484824 96.312324384096542
46.409576455623643 107.448863305914912 86.982980827796126
56.340417722762041 108.935743786024801 67.488392233584676
-55.332582604686877 78.541669727783642 51.677147480804976
-45.772004523619358 81.688611113296020 59.210486748651824
-36.274280182127143 84.577956173698112 64.026492596984411
-26.980659244326201 88.488416345244559 85.403797745912698
-17.465839662298539 91.565849243157004 93.514604778143379
-7.870152360649476 94.373165723592095 98.231661946186392
1.778411921055341 97.214682816597971 100.694465648955131
11.358245859073030 99.894738911218283 102.325645617560781
21.027252078573216 102.464583688871784 102.472633074065286
30.715073739096674 104.877944619554711 99.217866949129530
40.359108240848414 106.983685769693778 93.319818054991543
50.484304723051025 108.944507954405964 81.226933766167434
-60.885963237956418 77.033091700230685 43.362161874452681
-51.511440805039186 80.476334253934652 54.018873452423747
-41.967451697801010 83.626583882713959 60.341965576613013
-32.353236957558451 86.540740187923205 67.251255089991588
-23.174135232482548 90.433094759859856 89.163640883797143
-13.476179442547714 93.285617470227223 95.367173084088208
-3.887943527806387 96.283117268306299 99.340397225355517
5.798212515228396 98.850194709155687 99.367460771822010
15.275742265477504 101.642552375654375 102.095559719564235
24.959957827315066 104.126364475983408 101.608411786199341
34.731520474175639 106.540338134986726 96.957510205962791
44.590076762841939 108.535926662210116 88.663979581826325
54.511754172977426 110.254694456520468 73.077278208951654
-57.589251565155166 79.221191077219473 50.455986705910867
-48.080272142159430 82.381921421719639 57.730084802962310
-38.447382477374006 85.169804475794436 61.269808871926713
-29.190112444779174 88.948011995816529 80.227230013425583
-19.726746636937627 92.311679006893101 91.919562461488781
-10.149442804978001 95.279754084106344 96.938566022044583
-0.561475812108625 97.900844122842457 99.968012751417504
9.141007926543303 100.644074866892282 101.453501124958549
18.817606577663515 103.182212372465585 102.025977121977903
28.456165407479340 105.671298836699151 100.000715841135872
38.267220864810199 107.982237881907622 94.541200677807154
48.044099105879468 109.873555293293265 83.811322187542018
-63.144501770002023 77.711499907988710 40.349964700472924
-53.741805210408799 81.191067034163964 53.326589182966288
-44.157873275652520 84.368765135677847 59.607873678058048
-34.704728214796532 87.257986401463739 65.059166783718240
-25.350516686760429 91.161358615953262 86.931817627718289
-15.811089891542309 94.228674176225425 94.008752360836198
-6.306445710868667 96.984455944605315 97.628138690308433
3.446519477801207 99.696403601929561 99.844525211453373
13.164824359680587 102.494695380953360 101.881205437722556
22.736474587335273 104.933816086487923 101.627073629620156
32.518461349788417 107.378244845721497 97.719869761523256
42.277058990337650 109.553219073069982 90.773935655642703
52.135770591605194 111.318459152511394 76.800901809930792
-59.328845456526523 80.116884745617838 48.564851851932758
-49.844906759394362 83.202800318349560 56.146898220392345
-40.257379637926249 86.192209586675716 60.424560128097369
-30.865257260972690 89.231574373944440 68.414222031576230
-21.431609028751389 93.134736678804273 90.098986275205689
-11.900546686912978 96.071273809288940 96.033363820260092
-2.237452880822747 98.729636826341206 98.972426020818546
7.380507719505907 101.448368882799087 100.337894948317867
16.930346422589128 104.101708876596120 101.790136735438921
26.708090161837646 106.697810763922107 100.435942884328441
36.384342343931664 108.994074930009077 95.366899266778219
46.250625800856128 110.947146009651647 85.476406779771580
-64.875132844764948 78.392569691235707 35.897375160423280
-55.562732284685268 82.359921000850363 52.745958642150399
-46.050450336811068 85.078600010649595 58.592846026931042
-36.399378449554206 88.111552268136705 64.144064154319551
-27.050961363686085 91.827800141180830 83.185562256493427
-17.619614177699525 95.031030190499933 92.748034010489434
-8.102502130963057 97.923104186103046 96.847195632438883
1.665994353498860 100.573245146528862 99.430700757412964
11.187348738548764 103.282051303368661 101.592603441825631
21.001439678467005 105.885640011718294 101.364630677238111
30.643579245382732 108.303339597736851 98.400882985807897
40.299429139936073 110.426154616291115 92.084861890104449
50.316007227878835 112.353915412900903 79.649519670901299
-60.639227464407156 81.018928574496243 45.484596540085739
-51.277537705095931 84.390762995657482 55.758156153758335
-41.631406161369384 87.294984019269151 60.131227267486061
-31.998341478639070 90.248573593067817 68.131005370784550
-22.688823351004743 94.102071580397734 88.627629078892213
-13.119104947698887 97.060289022030588 94.773216738912808
-3.580457106437439 99.726317311016160 97.512404275489544
6.049513303495999 102.526197331999811 99.400437998657623
15.712805517512280 105.192279614997787 101.278987903667371
25.395351196548930 107.716663881286308 100.211533742003567
35.037374803282873 110.035723549037669 95.702896061110678
44.954889423337391 112.081559596204457 86.214120554033215
54.904303796209426 113.312005322080267 66.251021806584063
-56.860936883425047 83.236728494202282 51.718951606067733
-47.349279405648829 86.213146811446038 57.712527398483509
-37.699461582381701 89.205999012521332 63.203062305126430
-28.376752143781161 92.756449172289521 79.235643967806936
-18.971081759447866 95.891297945811289 91.159927795191990
-9.242214222878440 98.825704999302843 95.987937313886235
0.436846503596019 101.646003831710146 98.559121424223591
9.946091989763865 104.303027507532903 101.079474738195302
19.683781787476782 106.894112564698915 101.169413429819656
29.346580350903722 109.406587071120228 98.498994563415266
39.096300861545458 111.596081942252567 92.638728995192082
48.866798822554173 113.409986206372565 80.574544025502064
-61.499880567314548 82.226739841660304 44.748451631802808
-51.995747749345270 85.639095521214273 55.503899962092433
-42.425850049756072 88.486286416399508 60.002264805103117
-32.884577686900826 91.460839563546202 68.274611733834277
-23.643474443709216 94.998669685401993 85.772135973265904
-14.030518061953394 98.236341400042392 93.758589470743885
-4.320596122353116 100.868759500826158 96.602893018292605
5.236779142394379 103.606395520109444 98.920892811690351
14.883040006778906 106.371780554081056 100.612291505530493
24.499139373952826 108.892733062651274 100.011401279815189
34.221175123497325 111.140776616056186 95.594297055330244
44.067403155448083 113.304970351709827 86.550809807553705
-66.105740989198466 80.786655174722384 31.553772587437855
-56.782590539037258 84.757804271290780 51.851706873656958
-47.313065280859711 87.775318469468885 58.535001376689515
-37.624414437928216 90.593985414764461 63.617510779204245
-28.177223020635566 93.695035725216101 70.924211561098147
-18.737758098365745 97.431704422403385 90.302965697713361
-9.201374668236957 100.247676157325770 95.201106054414382
0.477243163057288 103.038947311127899 97.373858414342820
10.177422876805366 105.667317486816543 100.728503206030055
19.720631112721229 108.261514051635231 100.618286861005913
29.508522023475102 110.811757865884147 97.897776763016196
39.198612100630243 112.986298848765315 91.512687191980831
49.170295867439258 114.787374978057215 79.158349928163915
-60.956553838116250 84.044840402541922 45.778001748819051
-51.492988743682751 87.048777109297419 55.402262447191255
-41.832920535308659 90.081407725193557 60.058865758926430
-32.263188771438934 93.178370693922190 69.506596019875147
-22.961847732504559 96.730886878491191 85.273604471856814
-13.379882278348525 99.629268636669394 93.453808635732159
-3.747970453465683 102.476914218158200 95.452547802313802
5.864137257507050 105.162507014046952 99.241437236239264
15.426091610029705 107.803072442172905 100.330702224837665
25.161240725469000 110.313585433894815 99.191908857502540
34.865001511255073 112.752158296415999 94.615148698728333
44.706372029407277 114.691741232223464 84.498751592270438
-65.010658636368575 83.031499424899351 38.780788638921472
-55.745871665208256 86.620192884039540 52.758554019463901
-46.163483774728583 89.660185361621089 59.175443619093585
-36.553008406922800 92.482304237149506 65.116722209282841
-27.024250178716329 95.567791940686206 72.729174325400976
-17.529123858701865 99.167915169194089 89.817251855475320
-7.973874339121267 101.799649254047878 94.274120109427969
1.542943578366174 104.636047788600109 97.406135982923274
11.132137091320487 107.381837613474630 100.231045850727725
20.970058512439934 110.009722844695261 99.808543786100856
30.571760709280337 112.387645631268768 96.712545157401806
40.448403911327262 114.561049241123925 89.379296774291745
50.278249908789320 116.323829052015142 74.438700739824498
-59.324372971060285 85.838412644403377 47.512781126011745
-49.889812105660937 89.020585730930534 55.985568368486597
-40.296919219631121 91.907556727594539 60.807219073679718
-30.794188941220028 95.097078726683108 70.181688009607029
-21.255169655698197 98.495648269209994 85.006468487520308
-11.821672770482291 101.548278864277975 92.791611679460260
-2.199368259326537 104.208640534130581 95.551709931570841
7.486611635990819 107.070226679261523 99.718156989595229
17.096290254718411 109.697169085313689 100.069279661143526
26.813345602303915 112.154774986287208 97.828831359709241
36.593978968227120 114.457826392778159 92.546763652084820
46.400875941345319 116.349663550795469 81.662842177071425
-62.608875566930493 85.559262774718832 44.649848883377942
-53.177655468906288 88.773073567460258 53.750959585932605
-43.546005805807624 91.746106595091803 59.692833189186594
-34.160323927119634 94.821496198556048 68.017202824028971
-24.510546642154807 97.692506799977892 74.515126667524214
-14.591652238430235 101.289690499370224 89.872781610284747
-4.986552126844074 104.122182710524271 93.274968592957762
4.664534676800670 106.910501467226339 98.532498327077661
14.326425739283554 109.594198391075054 99.376110894789775
23.954393027548495 112.150295092550465 98.530155161781366
33.631571413879726 114.450820166266382 94.199861801921713
43.364932965371011 116.580299835455861 84.639156090978929
-65.407059382131109 85.166801740324672 38.504345893257167
-55.901190567260059 88.503794728396514 51.578956425721437
-46.431194302448240 91.702881763633073 58.902030732589907
-36.928629616845228 94.526146587517474 64.468880501327845
-27.352819121369194 97.619866064057717 73.614649925044716
-17.957246822663809 100.955456978678512 87.266571486340965
-8.189748767148300 103.813118440146823 91.144740659006771
1.182943411165166 106.674446682639939 97.094999389724137
10.956833200115199 109.417140374975091 99.222464545819420
20.628225622779663 111.976774813878620 98.797757263177544
30.278563118175587 114.413199896837043 95.630381439525848
40.000523447257486 116.419543874873895 88.103985407134758
49.915673951101134 118.389303580525720 72.793321705893405
-58.736567987183335 88.242375930393806 48.432889522161716
-49.258109262053623 91.602375307810547 56.798797887614448
-39.660737711489183 94.323919001295920 61.374259807089594
-30.109090075076601 97.503784300432429 69.749362716908706
-20.514890476032935 100.501521001537711 77.371465919258938
-10.990918380304404 103.616765869509123 89.541159784198001
-1.463947270285690 106.633293963571049 95.688709985209528
8.177485074648622 109.250253530582299 98.949187724710100
17.755399682126097 111.854925985298124 99.062883767139539
27.446543713901395 114.256867696428657 96.633822478140885
37.257118505447835 116.784696012887963 90.271996080226799
47.020037034597763 118.589261085255089 78.016136361781605
-62.486648451861129 87.688539753077748 44.846483070429663
-53.020781782971838 90.964414278514809 53.554702152152274
-43.355642704547506 93.949006923844934 59.839835825172145
-33.938401585888599 97.031560845162588 67.693551402311712
-24.347350771226438 100.005267657899708 75.036196373608405
-14.794507578788984 103.059671193149356 85.648582010588328
-5.245528913783048 106.001962499527934 91.504545872502334
4.294038718506236 108.958345744684991 97.984155268249836
13.952255389901772 111.517613487932834 98.706400412429886
23.562173902009423 114.121386353565313 97.747807176604127
33.283933372805954 116.545784401583205 93.233120574488296
43.168188244093926 118.492202376044659 83.397910207719050
-65.239304093030512 87.426020795451663 37.995587123468908
-55.813719318696464 90.770900559811025 51.110754590632268
-46.224174678139683 93.861421310545950 58.311833288474119
-36.524282652817391 96.877296038832100 64.246649159238842
-27.109064229393987 99.810993295024076 73.403919434732316
-17.520636472305171 102.671013507490969 79.773190531438047
-8.017723585091437 105.755590380608083 87.301483449686046
1.530749084374509 108.860667706674406 96.825191514764072
11.088974604001013 111.561256837153877 98.408220258616382
20.755213464898414 113.963730125956715 97.861412955257251
30.544348648184865 116.482424154364466 94.854469607388296
40.428387215263257 118.620691153097738 85.902885771171086
50.236046319662869 120.146526462227172 66.109162203964900
-58.606145310621557 90.641011112547616 48.593389212009299
-49.068987479051096 93.747379690210906 56.434798949003117
-39.421953258779482 96.596690859327424 61.241579067311001
-29.897554532824536 99.723207495143058 70.815294396651268
-20.325453832417885 102.579911592740189 77.524312458433769
-10.898864185623221 105.492909502983366 84.757272756849602
-1.343325056490489 108.673314001118158 95.112659153572963
8.346311011053654 111.319167618716349 97.731407846035864
17.963637734815549 114.012155144138930 97.695040817206802
27.706020969854666 116.486004562085867 95.543423488688788
37.392473440245141 118.735384461704527 88.507189373276276
47.338993010314425 120.574506969790093 75.234058850650726
-61.396384919136068 90.378992316670178 45.639324869803616
-51.882919203499739 93.546774741332655 54.183289305683275
-42.345925365209851 96.498836404539702 60.172714917806289
-32.685362743968021 99.530226287107837 67.848869374226794
-23.230365594543500 102.490435774655495 75.505890921201569
-13.583270696078060 105.389276466252355 82.578261355652970
-4.022073590041160 108.457487981508734 91.584393326092041
5.497263769306652 111.422866960180983 97.279239365916126
15.186227623343495 113.876569661840833 97.472920862352879
24.880892586317422 116.389331181055582 96.283914094933309
34.655838062487206 118.832313049927464 90.801873637602597
44.436209755362029 120.785627694802656 79.520749795383949
-63.614069521316694 90.317395502857664 42.381436925390268
-54.197838006759227 93.551329178303192 52.898885140889462
-44.618673093833110 96.457390534452657 58.796592826689974
-35.023835134045214 99.415443505075473 65.256236036508767
-25.501158365026075 102.411074116260735 73.880609518682149
-15.962391820815867 105.486939925475269 81.079903791655269
-6.388334978745752 108.367624857671188 87.459993825923462
3.160539564403145 111.330219310181022 96.109517131227449
12.781644896545998 113.968336245838842 96.693602445439808
22.503163592898996 116.514894063869505 96.617218103808938
32.112149443244164 119.029551287377330 92.667902342444364
42.003144602098658 120.972019762865798 82.041504031776768
-65.462316212113933 90.229588671558332 36.624990684932435
-55.931895319596002 93.728623830191964 51.198703455167959
-46.524192144078881 96.700615871838551 57.091925862785374
-36.937163114235361 99.537153482879091 62.827246867878465
-27.398497592206930 102.571965081951944 72.767369759955386
-17.736152973247378 105.519628443029276 79.447753004466179
-8.148643670317364 108.586059136876671 86.402305085613065
1.382345424223089 111.391676735243820 94.728856143412997
10.922887467017034 114.299067754167879 96.229486247409412
20.660782550758110 116.794789557908999 96.652671447517591
30.242322444238994 119.210897484559453 93.391979523539803
40.099938564245733 121.300696804909506 83.760877635851244
-67.280053075716083 90.022932778236736 30.141576535514126
-57.795205870420723 93.708236256179831 49.388420342622233
-48.125450078654765 96.865817478618254 55.586524924826122
-38.813426680646110 99.670093339960161 60.945383394811763
-29.267115512511815 102.769035532971785 70.752702641164262
-19.727878741046791 105.732531941221495 78.367072848444892
-10.105426284778371 108.700216999296373 85.867100296294566
-0.547774242812643 111.578307516815926 93.170010058289108
9.083378916600441 114.415054771387190 96.323031558235940
18.735208842998667 117.014970287179537 96.523198797331943
28.439570076312439 119.395719075288284 94.018313825350276
38.143898620565672 121.498708100619027 85.333966336673541
48.162656650131638 123.100093623018935 64.972726321925165
-59.613805270754952 93.848920185454716 47.439238404712974
-50.143149317994940 96.989677477643838 53.937727717106036
-40.711321514737890 99.813768749770020 59.978448852313051
-31.034294744347399 102.708691889540731 68.278273398188091
-21.449195692418076 105.834317222675026 76.283276757378729
-12.016096497052168 108.697608187004860 84.833870660988794
-2.381828050121168 111.675104215710817 90.623690475270251
7.237679151942665 114.426201651219415 95.621253686573098
16.883398719197693 117.092235227197392 96.514102343102962
26.652180428198047 119.659027408781114 94.171688304149285
36.366038181953826 121.880383368183800 86.776096735376370
46.117191827993423 123.695390063495083 72.494306951967502
-61.019268584645076 94.187191284182120 45.208250089910408
-51.459183707141200 97.283552697084815 53.230479205036687
-41.900738101125540 100.171740107066952 59.610558910769250
-32.414058683686498 103.083463218728440 66.608365891913550
-22.890238737791677 106.018239990152523 75.024114864384018
-13.417731701013487 109.027949840079515 83.842285342058915
-3.815325468132848 111.856812015672332 87.788202607414163
5.862491695179770 114.843419394849789 94.860089107955361
15.381905341113512 117.462250864081042 96.483081818979784
25.175853149154282 119.996125401440253 94.352545608140346
34.822660520484867 122.184689657158302 87.850221477608329
44.799960947921960 124.113103400820009 74.106579301322952
-61.943522695378419 94.522026869664444 43.503220383870485
-52.405258242160798 97.673454048207233 52.858882796141891
-42.929319668228061 100.632598472337747 59.474507756526350
-33.202988175131942 103.531021881196878 65.657922813584804
-23.846167150046625 106.538858296274682 74.587719694354234
-14.355588170805987 109.481627893503756 83.262965078648989
-4.590196425170394 112.268302176290490 87.240950733950712
5.005955254008356 115.144591961130814 93.924815611805897
14.545103250615139 117.971857288285378 96.209505352836572
24.274869698357229 120.447902149041226 94.376437998974282
34.129666088113687 122.737078579102288 87.929115516296534
43.820089182354835 124.727439388962694 74.738460438248893
-62.342448041261676 95.031561834366897 42.361769520117086
-52.735776594640448 98.257720107888304 52.398349479864613
-43.418662672541174 101.260086368446792 59.001972159469943
-33.738311748599671 104.079100436844257 64.722659862805386
-24.235588873690961 107.094336880508180 74.249751921002442
-14.635946845301778 110.000647839285264 82.865617113096633
-5.102756455433418 112.981363054193139 87.026865932111704
4.559448105424639 115.787001801479690 92.962288473034718
14.199569407250696 118.471724944451225 96.167212766878521
23.882352303908185 120.946648614832327 94.260866232590928
33.635026321226889 123.306442229116627 87.820351836115321
43.428824313252051 125.233716526817915 74.138065772324481
-62.297944080489003 95.814923655532979 42.212311092257046
-52.824693079916507 98.923528843452218 52.182950518560197
-43.292498625707466 101.998759102246609 58.815999026628177
-33.668895440542173 104.831731482247875 64.332772670185705
-24.194342256066349 107.832175780487972 74.036222042535755
-14.511817379570946 110.838365482301427 82.921687876338723
-4.908033235202748 113.650184939858065 87.069886462685858
4.589515581295050 116.384291131002769 92.436961512468173
14.213720553218625 119.213302859304321 95.986933157206636
23.963142787718898 121.710658587860451 93.687048401179638
33.576233465546295 124.010221208621573 87.137502108472418
43.624178791717384 125.817933432830046 71.532127443644868
-61.965024944989949 96.696176082243198 43.168413490226961
-52.212572059043538 99.962254867115377 52.213091702554344
-42.702147005905545 102.763446452098208 58.790978228254296
-33.055075804821975 105.779341792582102 64.484336613162839
-23.539827358472262 108.689762862023983 74.278813766715842
-13.914792111410701 111.701105336151031 83.073569339782267
-4.454470196596436 114.471875452384978 87.420246434282234
4.997173486298227 117.389058266677083 92.323640431758790
14.875125897419466 119.979191222674160 95.442476390538332
24.546916689609329 122.489978560026856 93.168444583748268
34.226378106636247 124.727513826608558 85.730153680643866
44.098383575439271 126.603913946115753 66.996245695121601
-59.396697009278853 98.378108410281300 45.843838241522228
-49.840285828703387 101.293960778952709 52.969017318924138
-40.137945487965325 104.265196650734239 58.567053334817039
-30.636872431928552 107.177843264353100 66.229040919603392
-21.167377637498785 110.266084201914211 76.997057095508779
-11.499849515137569 113.194186909817930 84.325694690840379
-2.001957952854113 115.968641827510027 87.791276224109538
7.691270897814622 118.738424322833481 93.215341276398618
17.272008903387643 121.372135187801035 94.725183631725614
26.966044447297563 123.806534323822277 91.753641499666884
36.827904784218987 125.969910763688716 81.573889615877121
-65.845696268258351 96.850954232070265 38.841880446192732
-56.402387359382828 100.003852877337906 47.893652250208078
-46.830794134846478 103.022044409281690 55.031643391032496
-37.329410042312411 105.850435627373514 59.797200720950642
-27.695203702669161 108.739424739484107 69.734503967601967
-18.198626526396517 111.870959578298013 79.750326723748699
-8.612852415464946 114.688952538713693 86.110224403577547
0.943444000525332 117.457687445873177 89.502429355122729
10.620953081332981 120.193819924794681 93.625085271626105
20.288573498525150 122.837173554710816 93.805248081371161
30.033118250499630 125.217259939493104 88.656024786740744
39.817709185237007 127.298687847004288 75.999004183702468
-62.520992202566973 98.739369422909732 41.750260671773333
-53.047845875792461 101.761335163718400 50.300455078451797
-43.456115339031243 104.869292921398383 57.010976148425740
-33.914039328712406 107.743491444697980 62.711911064848792
-24.449126686740577 110.677460825122751 73.133117638556882
-14.775647670992278 113.557706265169273 81.922351604306783
-5.075153694923177 116.506890868165087 87.209410762701395
4.362094206139687 119.247380503513384 91.193077483090448
14.007939690560903 121.855358603778654 93.903974056600802
23.823122777079206 124.305269332383517 92.125256815953648
33.392399500561211 126.600239525451130 83.985237472011619
43.308566942700793 128.309760888696587 64.583200906627809
-59.151749278594764 100.577536881611834 44.987914919795053
-49.647342987233493 103.590967539207639 51.918956330518341
-40.082611528067588 106.596341469717856 58.001889551170038
-30.465821615734271 109.287653837638530 65.085989684822550
-20.981608343099126 112.361378402302861 76.519934828601436
-11.390464692434726 115.360148668340315 84.258360554896484
-1.696086446377752 117.985779662173869 87.771132534964565
7.797973096461359 120.933696552672444 92.015885517642474
17.541740113014118 123.603365206407744 93.822900734188849
27.169182074450401 125.859946589065316 89.673102360873557
36.977108733366663 128.108292216309252 77.991446212808796
-69.633530516951382 98.315406267177650 42.677975812291081
-59.958556328850960 101.054885525207311 44.012436814014812
-50.537274335329158 103.923517813278366 50.690380229179809
-40.942902993033826 106.984179159159012 57.216067696941131
-31.337253043542148 109.701850647633606 63.665598248891406
-21.826735596396617 112.800191615362436 74.978758330373523
-12.343606211571121 115.738366059199279 83.582146627451678
-2.647075157950411 118.692656527068976 87.589623873103449
6.958293052063482 121.226789526570670 91.425081885607099
16.686105894783491 123.985457217444193 93.569639918299359
26.255960407417316 126.369482101982200 89.863772840660900
36.122954257814243 128.597058505560369 78.311441839490712
-71.539776490200978 98.620443668847926 43.708765184220724
-61.961134989559611 101.122618470454739 43.106126837672427
-52.362069220719476 104.005196145208984 49.097321914598787
-42.843445895415137 107.049387643863497 56.144498240628252
-33.214000751394153 109.970557374575719 61.696092375005072
-23.717835944737235 112.948807507613296 72.504084593421823
-14.110775858418179 115.911231634459654 82.049214865680156
-4.401443753697293 118.728614169254030 87.101269498188557
5.079048142185663 121.454353147330622 90.656076764857247
14.737541444854546 124.056321628442305 92.931068833786185
24.360887615815241 126.550086444336230 90.307651652476849
34.163676870954724 128.749919125053566 80.043671743989705
-74.083890321826061 98.769658139218706 43.990554085940254
-64.259768082384468 101.397382904221246 44.914572359203198
-54.708660442002845 104.143819066540217 46.965129552153059
-45.051920511013350 107.040818795313200 53.914128748640451
-35.619323404944822 109.889756507563277 58.971289502578344
-25.984279910767604 112.848658020456355 70.135788131496469
-16.398625578787691 115.886820593628116 79.629635623911184
-6.820335843018107 118.770180508055077 86.035653500817844
2.765239350499950 121.407638365648083 89.398218422961435
12.396376265667527 124.198093907321535 92.144088433685837
22.122134561926018 126.732945386282552 91.034183424143535
31.845630633143102 128.957551470852252 82.230875310389422
-78.154670319677052 98.082327112286478 39.813049475300005
-68.598949283355566 101.164606341444582 48.726618555038087
-58.926713526140674 103.586857588270249 44.834028785445078
-49.302218283646980 106.552571245762522 50.222371803351500
-39.732615608182613 109.361838141839527 56.532261077077841
-30.209720208074224 112.218219181722702 63.170360049954184
-20.660209690144480 115.333588154606673 75.475416237320985
-11.080629649409833 118.314946497605717 83.832777873355766
-1.555455965756710 121.054996920751790 87.491426748757306
8.184767480522055 123.707572743204054 90.949805568473650
17.787339503236286 126.333167683467337 91.932367231689909
27.401057231861166 128.599139498976456 86.636722819658260
37.324254040938669 130.824870831121245 73.232123727876527
-73.854986566460397 100.456365723198189 48.516440470820115
-64.120519942686556 103.094659173458680 47.556174166875472
-54.588349346275209 105.591227752519586 46.642741078256797
-44.975574718483969 108.426747154620358 52.605170233835985
-35.360984343238947 111.275289449800667 58.165672811714209
-25.854552140092476 114.316258789735215 69.167089766749257
-16.421588612558310 117.397310116745970 79.306800693960682
-6.702104346886472 120.173826648352104 85.731779684022555
2.850894761512489 122.911814875125032 88.774122641962535
12.550367547903146 125.538186351407660 91.309454972727963
22.154116572111693 128.014061916021035 89.777335885547160
31.887626249095518 130.325244031293806 79.846421562002547
-79.543213447318706 99.255993189004855 40.966174707120175
-70.019261585487470 102.390421159108882 51.228310137873024
-60.267028353973885 104.622878508404327 45.597954889772829
-50.612834575624746 107.380396739245015 48.640098014065835
-41.069844756368461 110.296266325266430 54.817033843512625
-31.550800605937553 113.248017391649782 61.308601838077074
-22.054135156484577 116.332505688765110 72.910749768342185
-12.525153094687091 119.166765125414244 82.444026046518687
-2.813121998949406 121.988206090216337 86.602107619601597
6.766538802409592 124.870097284438359 90.471095059527087
16.480294883714837 127.337639965628981 91.055441329834380
26.139143487725622 129.831032783860451 86.114782218735272
36.097916619223518 131.810936515394644 72.906956498871352
-75.775798685792552 101.557732679764456 49.453132663834033
-66.076835202232445 104.225296402265755 50.514371496639065
-56.359887694858600 106.523541772614550 46.042221200642288
-46.798340436311037 109.308317614825981 50.409574976566255
-37.226860492469285 112.229935806021103 56.469535570979438
-27.595541865634218 115.050034497631984 63.311032235387849
-18.150017460340464 118.276651775335793 77.254268439133611
-8.469807059903236 121.097095181885805 84.327522320241158
1.152882038742277 123.771562891228868 87.482104428891290
10.762596921895220 126.542116364547113 90.573225126607582
20.480012109450005 128.988383668448677 89.287660185215557
30.207094310840823 131.314194980796714 80.208157615246719
-81.338681608291495 100.270760723452142 41.416344544262984
-71.812350336889878 103.438460771871945 52.850237608530833
-62.173613449952924 105.768265090224830 48.194798721797376
-52.457672545886879 108.412383887650734 47.781781961933497
-42.941049182082423 111.152389893520180 52.280431603220961
-33.323192731047683 114.134356009951574 58.309586363684687
-23.806998340238469 117.254944004720940 70.330932667306755
-14.185495319183545 120.160171761691672 80.443004513339019
-4.544742157471639 122.864496521575703 85.509970234477834
4.944816820021135 125.701575882996536 89.129034838279949
14.624119937513871 128.253935899655858 89.757352845321407
24.427401324873273 130.648910353629532 86.133721365587064
34.154140601529917 132.784570464246144 73.203233012177094
-77.551583881254075 102.370103361577065 48.636525293313554
-67.909783658131460 105.191270596544612 52.538160964641371
-58.118036499001981 107.451551731722930 46.646711386389164
-48.631821328807021 110.270827328284781 48.505616306792028
-39.074989104639407 112.977920686027289 54.702367269861966
-29.426919829470719 115.975001899579254 61.187982685412841
-19.810684098598795 119.007584821418931 74.631332413888003
-10.347373698133582 121.972226872619345 82.747067394043526
-0.507949448279014 124.710620730965246 86.429512191769319
8.941868826570779 127.381329013673806 89.851602275620479
18.516265282481708 129.952113340771746 88.725885246343069
28.375941342167188 132.190115181030933 80.378983135763548
-82.596327637381364 101.365483795644138 41.365632763165124
-73.259095082576749 104.615606727306371 53.667756219920676
-63.530090492150123 107.056505642304188 50.028231155085464
-53.761788639923239 109.390565392041893 48.384360569193397
-44.158823475511653 112.258389687703811 49.944780724232388
-34.693348846127243 115.122772246604470 56.580887771722068
-25.102712117663245 118.188913954416506 67.461801577263330
-15.542910482725787 121.013087254245065 77.995766630361373
-5.880308362243863 123.845946461145147 83.866308291593811
3.657739565108166 126.560820628883462 87.985752181059937
13.358787458881945 129.339594809324296 89.086670324840370
23.056105762164439 131.671044787294335 85.365493262586355
32.873995146818345 133.893898909466230 72.553524504295112
-78.899438174047376 103.486532958411317 47.372388855265122
-69.299754089802320 106.481622383402026 53.773481439244172
-59.509643330312613 108.772657943286774 48.166017641695014
-49.922168970189105 111.353793609608871 48.217534991078033
-40.281766899932087 114.216002053882193 52.809325890839048
-30.593126466114640 116.877777297827024 58.469910282106810
-21.041147552467859 120.151148995191193 72.515739644253600
-11.600348499306218 122.964023071945633 81.222400071107486
-1.934733072984461 125.689618138411205 85.545774871658523
7.588789616356660 128.364436022651972 88.838171510176110
17.310120915361711 131.106836841786787 87.795506068604396
27.124207894491523 133.226234669536922 79.667168667420825
-84.121831012561515 102.360202286873474 41.114117513762537
-74.491975305867712 105.705822989597692 53.901620431954740
-64.803551019837158 108.168810044864728 51.769381203240428
-55.167183185843157 110.741408151887441 49.352146822016493
-45.424903979168832 113.198876090938384 48.293546678247537
-35.836666982264546 116.151863606982161 55.026562696454974
-26.320032554882800 118.968690927328765 63.270175568184939
-16.784881655019955 122.083817878165803 76.164339529908048
-7.211234281366810 124.897861826503402 82.567171734976341
2.441720869477006 127.670102670403864 86.859013344504262
