ply
format ascii 1.0
element vertex 815
property double x
property double y
property double z
end_header
-38.759323669886250 114.509659538347975 33.807498185411760
-33.652479552652338 114.637067638731025 33.528803405514346
-28.783155785778124 114.478343064989971 34.183388749591032
-23.746777370860624 114.547665600107379 35.544680876353226
-18.834777332652845 114.767297750256958 37.804584726590299
-13.722336982535161 114.839801657931915 39.257821450406354
-8.803197887197390 114.850445016193063 40.552140019917267
-3.702369865265403 114.895933229726523 40.921315189418223
1.278360072451643 114.959117047813621 40.872151981612724
6.317703528141977 114.798088244580853 39.970235128995938
11.254209570657940 114.825598059977068 38.369424149138879
16.227891619866089 114.753783429990435 37.404026031065897
21.239205768991699 114.677691671162790 35.518222763862575
26.304078518348373 114.526547910949347 33.308240065463067
31.280979891961991 114.247324862394294 28.700806718904957
-90.988501808629323 115.624584496734116 41.194521390803764
-85.993354398491618 115.904342773713836 47.557588608688803
-81.089712142394575 115.898378116483499 48.145115205285300
-76.043153887197363 116.085037811819717 51.528519108051498
-70.949552912496230 116.145674202975997 52.071149444150500
-66.104596211377626 115.900794235221667 48.464698866966046
-61.105746828329103 115.558862618448572 37.938211668796029
-55.926530096969870 115.238333163551445 35.789825023612210
-50.972431555692388 115.296393419898266 33.707229789326270
-46.076936234815975 115.164624631642994 33.188906087410629
-41.018204655289345 115.220011708980877 33.741085770866540
-35.881758800779956 115.130962297399719 32.672651743221238
-30.901386532408139 115.350733027405028 33.304386345040527
-26.107634015799405 115.259880175028300 33.687197649594914
-21.004345897763042 115.386383702262521 36.794633122995911
-16.073577137744355 115.478335798350955 38.150828227115106
-11.083778989726341 115.537016685967032 39.640380511714049
-5.838939185031550 115.574821316804645 40.201957876237280
-1.012940483681125 115.598375074803030 40.911243825391857
3.922025896881673 115.528819741161996 40.264468582513132
9.026434443905757 115.481144463593139 38.758710456251684
13.994382746959781 115.465369939080745 37.157522242834673
19.100661975104220 115.418614252752292 36.431944633112636
23.951871682176790 115.213238882046056 33.875538044866190
29.016256361436831 115.004776537407395 30.946767023583870
34.019888455891660 114.572665201819802 22.987960402597118
-88.167819604809708 116.553400000216499 45.989672772644404
-83.270264946829059 116.784200741892548 48.716314068841058
-78.376547943887616 116.751005309669964 50.398021030419208
-73.284370839817953 116.747151526071377 52.440207097077007
-68.192185946013979 116.870539406805435 51.620919854305335
-63.180020203861972 116.393186742078314 43.229175950589820
-58.327939183963451 116.038436327413777 37.614298373252140
-53.323840335053497 115.961002756735851 33.960818097605596
-48.225477285846118 115.832489608849613 32.603309951753140
-43.239011334176794 115.806784039445546 32.728139653201765
-38.381230818120450 115.848161939369703 32.588909407102726
-33.221241690677523 115.823064893407690 32.433208996607192
-28.377699836835678 116.005232026722396 32.921131455441270
-23.228917433460055 115.920850091897378 34.970800802778449
-18.196033353240058 116.060855863041397 37.313747475394543
-13.316421523900843 116.231398079359565 38.584056646087831
-8.256948357142038 116.361887478542556 39.736642330713458
-3.219855062806276 116.387137521952738 40.352777134776218
1.789816984106112 116.270557762234176 40.257776984596127
6.648978794208334 116.164359965719427 39.130400428808279
11.685596054725329 116.270589664094643 37.510012092641794
16.715154501973061 116.120840729205398 36.557304428131843
21.710300015959220 115.980563821319649 34.761475721783754
26.817700315357509 115.886705223532417 31.947788810020302
31.819869960992708 115.532650065724070 26.013531270691228
-89.885609019878473 117.145204790830590 44.513214930269577
-85.055081544328701 117.324788026987363 48.628580380230090
-80.025949366797505 117.339307931996572 49.113710878254381
-74.944584085397921 117.596371070536492 52.528934460787411
-70.089140277763917 117.530734485186656 52.468484962095204
-64.924715327321977 117.370748629181520 48.501065323017841
-59.904657146488013 116.993196771484989 38.846266046125820
-55.072518768548235 116.892689404483818 35.687481318986173
-50.038590265199886 116.591078280619939 32.500189621964346
-44.984625152242948 116.527838669699321 32.021065411822732
-40.084451038081873 116.577562574964844 32.569108404519717
-35.007896893813090 116.544570049405294 31.978307190196791
-30.007900274365330 116.546013875794401 32.188528167033475
-24.907798130858136 116.634659222130566 33.280282645663753
-20.021380244129102 116.741557810894420 36.221347799681354
-14.965587546660521 116.819069388755068 37.618068821360147
-10.013291909535686 116.933264362482049 39.189566288078083
-5.008723703247899 116.978943730842786 39.620242622710066
0.030877761905784 116.844836803426873 40.080939514318253
4.936801997855422 116.962704401447311 39.135604459290143
10.048811155131101 116.819485294357079 37.614685754078181
15.015315871034804 116.780513990963726 36.494597191558846
19.968797902097929 116.789642491633700 35.352893533929389
24.993638610632665 116.545491465220309 32.194169938193383
29.955673066664762 116.394006759714074 28.025881332520729
-91.702356858491413 117.828245323256098 42.515085489490446
-86.739277584298293 118.178018081092759 47.952959731628830
-81.770224446548823 118.145742267306829 48.909776187943343
-76.824463282795350 118.209524956889098 52.012750582392663
-71.723604712096048 118.312938238693249 53.109588686828815
-66.736898375546360 118.162895402198686 51.200779343650503
-61.767177762475455 117.794942974093416 41.401782250444896
-56.780868557698071 117.480457945904632 38.053117365527193
-51.684268018247536 117.400672508182424 33.129768629057679
-46.694199767855615 117.189634495969926 31.118021440079676
-41.724176343638028 117.271332117336925 31.884316346802894
-36.710306770599601 117.338616745352027 31.584566074512392
-31.734248014018029 117.267981607531183 31.530115623357322
-26.748850578620004 117.322101874629908 31.759737998900416
-21.696368866939959 117.492637090637089 34.741447598400249
-16.756461733378387 117.576091914701792 36.297548424442780
-11.725001614636568 117.593576970502298 38.257904063447718
-6.775380352322561 117.651485156634010 38.760498405769575
-1.751729110313289 117.624607846362494 39.498992373963169
3.341661949927873 117.695896817700827 39.181603548284535
8.314513798452364 117.587670807350534 37.949252524676524
13.274142520588834 117.521988801177656 36.398740018304181
18.249382607286531 117.426324876943440 35.701964173694265
23.233239262753557 117.335652126259731 33.034138509858778
28.251760293848768 117.210366717837502 28.839137613988058
-92.959447470181757 118.299632917310063 39.732343835744224
-87.913508684863800 118.769977103346349 47.260245101745575
-82.903337376066077 118.786951511970273 49.253956780007428
-77.975364850983723 118.944092023875811 51.441783374437151
-72.985766636707794 119.012597944528224 53.231804850018605
-67.985062566401481 118.932162369731401 52.254549807813767
-63.028734011886598 118.652439644717077 44.981505107673101
-58.039279476778304 118.337225033314184 38.960011474347290
-53.011502051779701 118.133861467443950 34.711882692179053
-48.085555140850154 117.903047103092788 30.775385432393755
-42.919568426136365 118.007601312473042 31.091461855808500
-37.931237071572561 117.960610098045024 31.157807519710321
-32.951732926797213 117.911853030828524 31.018899297537388
-27.969500023744274 117.917289039351701 31.004197674319176
-23.044255711699520 118.028161556652705 33.272584343699769
-18.041737177807924 118.207637892002623 35.758345119713063
-13.033025173866868 118.313663570695709 37.769501936750842
-8.000890807453185 118.283657820436062 38.189404392127976
-2.988310740735076 118.303740795808395 39.073393707498155
1.966670577001023 118.275297470293694 38.819566095320425
7.050559541640879 118.326616542663089 37.923598165969921
12.039518555944875 118.277684388440406 36.390981252154774
16.981567213288670 118.206018890290437 35.382030937943725
22.105081878397076 117.998120311338184 33.392716386536193
26.940236059640544 117.874804825839163 29.407832927604424
-93.763388322359901 118.139638653699819 19.367126111340564
-88.720971115296535 119.527521832281025 46.755628651325289
-83.777426266838475 119.673828709682340 49.346757453825958
-78.736973957885297 119.548122860320049 51.063461385144649
-73.756272287567498 119.681594280312325 53.243251468757997
-68.737291026030960 119.791436019211403 52.719257355457941
-63.754516725347557 119.562384214846219 47.432921715943976
-58.809987264646182 119.065374393659866 39.668862866662558
-53.757012352901569 118.886139888717821 35.683961889818356
-48.789642897009486 118.714245332358956 30.919671859805955
-43.721217573696869 118.724395862198364 30.182244906629116
-38.721796556814432 118.612980553833140 30.822845581804124
-33.794351523061039 118.629347587398627 30.515907859557846
-28.744916779190206 118.577458649287678 30.349799820298415
-23.735165038165636 118.648865606978760 32.097111266797860
-18.834624052635437 118.800493949292601 34.874674469182700
-13.728443743156740 118.884955319988805 36.807183798688136
-8.778021519609554 118.893881815885095 37.656821771636224
-3.815031550289127 119.059006980973848 38.523664285509973
1.253734129017795 118.979736409472054 38.657164949635721
6.254830057962621 118.962429758208899 37.341604183896735
11.269128860817403 118.866454236440376 36.334135273754050
16.210222849814599 118.827589179874494 35.094416960804750
21.343382714639091 118.826448463821350 33.681068005013557
26.099345656338134 118.554444843405449 29.149772980962762
-94.018152278049783 118.895707211492578 19.221305381644395
-89.045566859781772 120.157882320603576 46.620884285809275
-83.908491128630516 120.304786551807638 49.303864056981141
-78.968834799818239 120.317504004521140 50.917953307484190
-73.992394690787251 120.391906243493466 53.308515771582037
-69.043534476681785 120.373915259040871 52.920121063100744
-63.944982810568376 120.182168648234253 48.308524635179964
-59.049717564316595 119.754788924394660 40.228344000413244
-54.016784738551387 119.708124572772633 36.249451609537552
-48.950849921903966 119.350225542162690 31.090396346896235
-43.930806298769880 119.287564313043660 29.425743967495688
-39.148076033875562 119.315488970646001 30.314042060758034
-33.993797728029271 119.416473379172956 29.940851414273279
-29.000091633258844 119.327363404473743 29.340808660372868
-24.026309181848081 119.418926631991681 31.306001732753860
-19.134612098188818 119.574662696134340 34.164046503299090
-14.071007953528360 119.656931823764566 36.260035562285182
-9.043827397573880 119.593169817314788 37.255004371715614
-4.122999387405030 119.732949551894535 37.920962715397714
0.926575973059621 119.707898387897487 38.217363784525112
6.012553431922761 119.686405416445965 36.999446690895425
11.021715384455613 119.627544810898456 36.150676801694303
16.017950359591442 119.618218047321932 34.766115741420741
21.065916733914726 119.477847060602400 33.271217399011974
25.970768465878539 119.302968069294849 28.458117640145627
-93.275551797389184 120.505542192886836 40.314127374341552
-88.306947320029280 120.806252745116964 47.341588367503242
-83.317917975258837 120.895947926357792 49.319254683728524
-78.234089754145003 121.107420646621648 51.588103949394281
-73.169282963952938 121.145963545284317 53.692782312745173
-68.242740265479398 120.951764280575375 52.607408370166731
-63.264153736988334 120.867697006685802 46.919209280811813
-58.220153157057993 120.540757242557547 40.195054547162840
-53.321813917580243 120.320419120986188 35.746062376791443
-48.178761502730552 120.044253021963158 29.460071427597551
-43.256266740514889 120.034338244928747 28.865336159410912
-38.288933833190050 119.987252834075250 29.926859257743299
-33.288715662173381 120.065215045057556 29.018159837600688
-28.312059459830841 119.981563343578301 28.608314406466302
-23.332302093997864 120.109313987307488 30.907368120863786
-18.228734141015803 120.293821570516982 33.858323323463814
-13.285711946968574 120.350637693628443 36.070107787708373
-8.226463471584875 120.378717452831665 37.032854431308081
-3.307058167023679 120.391477129418021 37.415605439688008
1.783896211633102 120.430992567778375 37.175871507977924
6.704462941723756 120.272104280029112 36.406709873810037
11.737964254699614 120.315482435242387 35.379944027404804
16.784873345700159 120.245467530770256 33.855794551015904
21.727678740499357 120.169441344921964 31.967780992292511
26.709708149845802 119.898659168455950 26.947395828036228
-92.043769608379037 121.472965924511016 43.157036842267530
-87.068656817392934 121.771032925190013 48.221539399295970
-81.977720410297664 121.734337271431002 49.184139584077130
-76.900994440624004 121.825622681388325 52.465634199115115
-72.015294044421964 121.826569004430240 53.552812894376025
-67.035992666502949 121.708800711211836 51.678350660103021
-62.036599775269231 121.432722391599299 43.521491326367865
-56.922327469290529 121.169551074368158 39.632707470970693
-51.969693311757204 121.019160723269465 34.745970813044011
-47.004648365059531 120.587923230141598 28.084577762358688
-42.010691768714175 120.691249947308236 28.187478534466695
-37.014094608413359 120.739297755865934 29.391421270196794
-31.934161531654411 120.569876223355593 27.202586386399172
-26.941440077077029 120.745960191934927 28.034720984419774
-21.918675808691134 120.792628217443195 30.804288953309683
-17.023891266435999 120.942570728324014 33.330474454943932
-12.003292856884245 121.010767393580934 35.628410960385125
-7.119615629272588 121.047752255221084 36.306442045961575
-1.981877930940253 121.133604866158763 36.998482446958803
3.038897412971231 121.079061826597652 36.276195310725868
8.098743366957885 121.086391491388397 36.019649943775619
13.039435480323771 121.019540467349401 34.845815352452938
17.921844717925172 120.939996052788047 32.984260747420635
22.949156777769566 120.684741278365507 30.382099740855420
27.994614989875870 120.510974804521425 24.372693339224817
-90.267845981382592 122.188000569722107 45.587066126097461
-85.203252971864430 122.417603945996433 48.827863508392952
-80.317902368818181 122.412090135519605 50.429816905636855
-75.300371396317345 122.469691413696054 53.097464697157051
-70.253781887109639 122.464541240235462 53.285396910093823
-65.337176397993218 122.494665772450574 49.815313624897996
-60.193271576136269 122.088088366058827 41.729031560597434
-55.239881696898721 121.836760930973782 38.352947786470004
-50.231978673521070 121.630990423242935 33.149146159374226
-45.254773133082367 121.381561519113291 26.621289053091033
-40.210996484007929 121.390312122205913 28.175862320169223
-35.239814248259613 121.413112905173435 27.996303441080720
-30.182614031470369 121.271009898252601 26.135177355083385
-25.313871880997912 121.439639222713510 27.686380723036709
-20.266862577713667 121.467159767248503 30.920159651202589
-15.228518167811883 121.654125424750816 33.392865996454709
-10.281010686574417 121.727341892451292 35.377772657435415
-5.284634845869236 121.814053563723618 36.296653327361881
-0.269099747675342 121.744569614688103 36.274818161495908
4.710904681913136 121.668730440437386 35.256251126443232
9.727827752437063 121.708605132229806 35.412355030893956
14.848645027463375 121.590129954135818 33.587132218905573
19.757567780933634 121.507961524376142 31.613021726372970
24.772052774425553 121.319545283925194 27.391918996959415
-93.080619465134717 122.562980130042618 41.248102574411575
-88.060915156234330 123.030694021529598 47.488805439673335
-82.942738319969465 123.108328767807492 49.576781656598889
-78.015625193801924 123.275006826328735 51.941858300087112
-72.977528552466666 123.272202056816013 53.423724721840962
-67.829528163372359 123.087617144217930 52.246344902381672
-62.924900813743704 122.886455979866000 45.819831995398346
-58.051388238374940 122.680998520483371 40.495036752626248
-52.982240476150118 122.457523892799685 36.401020964831559
-47.899345199437448 122.161156273350429 28.898439474965318
-42.998944331665079 122.073815441989680 26.352043770857822
-37.952945364471731 122.050841120855168 27.981122485565891
-33.045026020153983 121.905866324135133 26.196261201448145
-27.930310243063104 121.875484303067012 24.113250332204636
-22.923819921337806 122.047911551609829 27.966087963999161
-18.023300763796421 122.291897250352093 31.085694845633853
-13.009000612623094 122.421937112506043 33.675337710335604
-8.058968349491686 122.426056768657034 35.155165142930905
-2.982354793189451 122.406910123463277 35.873294740700885
1.985692076636831 122.435658248463042 35.142759166292912
7.012356382534271 122.383044290666518 35.165805920158817
12.059029762616188 122.360822351967784 33.971637367341039
17.028390593531974 122.196497556661342 31.294365730574143
21.955710622423808 122.168255536470525 29.501345923633714
26.974743105059058 121.758229215061434 20.965589958376817
-90.273062518433491 123.600194971461363 45.158149456173497
-85.182515610423366 123.646937596672501 48.845758152620476
-80.245627695516276 123.761014732198120 51.448423665031285
-75.254124720863345 123.893466142617086 53.156870539437655
-70.249154881235583 123.933836068988498 53.218869782404830
-65.210892200060144 123.776202993543947 49.492199027530887
-60.146426171019193 123.429534557826429 41.923791093121380
-55.201900481881346 123.356014513272157 38.965324208746971
-50.281979325165402 123.099265389860605 33.221236855733373
-45.248890263108834 122.695180180792974 25.327245448011748
-40.316977666658417 122.725465481381448 26.565400908310419
-35.137293388095721 122.740754951120906 26.404404719673536
-30.225635492787053 122.504974397294589 23.203982730227825
-25.301277876255035 122.595497391726539 25.059269586693485
-20.155452873185478 122.858133049997974 28.721682458517591
-15.209727011261784 123.020649902314020 31.813098248881559
-10.218546403598321 123.075007838260333 33.918123290125301
-5.320736023525378 123.135320808042408 35.079007438857019
-0.279476497823616 123.140984744568598 35.014043850762732
4.661964781008670 123.131609849710841 34.492566195494071
9.786226925395086 123.151099330071006 34.169751970686640
14.785698728047143 123.006861237909447 32.030664754363656
19.760595447767354 122.858457747053052 29.683224366230100
24.692698910171963 122.594073235644103 24.599298892538570
-92.075731460499171 124.070334433610853 41.490378542071134
-86.892813410666662 124.392205748163036 47.870430435410682
-82.130475983266024 124.498197970202327 51.356232997397456
-77.009733836485935 124.583221883706969 52.441030294741218
-71.917657469967324 124.495602361314980 53.096769689198389
-67.041080678592664 124.502768453246517 50.941769397009082
-62.073438785495703 124.319544938098346 43.807334379837748
-56.994875742659360 124.125119977255764 40.008117625332609
-52.008770824921903 123.835048093340347 35.046841036549672
-46.916692338791201 123.439854300465782 26.936837657567569
-41.996828573883292 123.463932957591382 24.771911926457186
-37.052451256354068 123.545692445182596 25.651669117048584
-31.987918199807094 123.428959363818691 23.488770430755476
-27.018794804340793 123.238227072735796 21.804193684752661
-21.967201305752560 123.415996704209221 25.630262121144238
-16.877689048400807 123.708416604043379 29.894416757686340
-11.969233349367556 123.697203845419210 32.358267706456431
-6.961812547963009 123.874136034124518 34.158219988783038
-2.033809689150158 123.743375572031638 34.039068361997650
2.969195394693385 123.832497725067810 33.948629254658549
7.994680315423620 123.861926811416879 33.919706549734890
13.075275616822230 123.745328823744018 32.534297356638987
18.035825181998668 123.555674914456802 29.107247939868994
22.870211143075501 123.425546946387399 25.597210574956659
-92.272219559543842 124.897428890633762 41.099415014764844
-87.211256826657845 125.177795070751131 47.593037358475904
-82.299807357562457 125.293271955513191 51.420251812325574
-77.331534956191859 125.348770847558853 52.658854730465414
-72.294924803647362 125.309912699088557 53.069400048438233
-67.369865301419949 125.134799067102776 50.831933939053322
-62.191084384059572 125.167501740223386 44.202047613201415
-57.192834521604532 124.837052939919445 40.051820124152620
-52.350234007969782 124.580507400042706 35.267524588896983
-47.244496702588734 124.356187996794404 28.024063562861745
-42.159925478069319 124.096306529535099 23.363717106558656
-37.329017222658948 124.148657771933856 24.498343445226915
-32.289303877096074 124.007520115721761 21.819724594484249
-27.218989549471598 123.958640931767818 20.335784063974522
-22.245465573893931 124.072524408067835 23.064903337199830
-17.194554014959856 124.229418646074947 28.077016873544963
-12.318345314996813 124.459736764959018 31.312311190389803
-7.232648374441182 124.470740735216367 33.091167252363739
-2.232203154290685 124.538812822737228 33.148096664100358
2.769792838606847 124.565538602046658 33.246338122081994
7.818611140029926 124.601705828030816 33.159004447399504
12.686568456983514 124.503253522916452 31.819676187782182
17.776833961655129 124.362006465899427 28.235886539928007
22.695303750234626 124.121089674303079 24.726095294291238
-91.470596797981884 125.662380195141367 42.669743073341593
-86.511434848524431 125.855473203129279 47.952649830364777
-81.573953433897486 126.035410756792572 52.099108315689413
-76.486348441850026 125.911083356196471 52.776069844296337
-71.450431084046258 126.074210244924828 52.735020973531746
-66.555121084306151 125.965097901657813 49.764781080617460
-61.496768455768624 125.692109726863663 42.598598133234340
-56.549211262349935 125.461479345926321 39.452472411793579
-51.462255030061939 125.329482428197721 34.145122820525806
-46.524100194259880 124.969367126194683 26.398200740010754
-41.509109926274824 124.778384872546155 22.566543899182697
-36.397455668824335 124.758898215236030 23.261549011678476
-31.433287806231199 124.648024421729360 21.069356441499973
-26.449476311438239 124.691073979321800 19.179986973807296
-21.545336404732527 124.759050437005257 22.549136887807983
-16.585841525412256 124.839309421903380 27.039952533570773
-11.535441841234645 125.271814500425648 30.729534642833027
-6.454184342105346 125.150003744056690 31.936416966714138
-1.454181449676369 125.247358878698648 32.544162894926302
3.577336633604255 125.248435638620677 32.587706580436986
8.498530984249202 125.120569169962579 32.200439316419740
13.522075723106099 125.024761177142068 30.660933940001925
18.477079265565116 124.934275341683829 26.728216192366553
23.481829935246637 124.604400933374237 20.965938632077741
-90.322795309261821 126.421343120681314 44.043014986332274
-85.355325604570822 126.560823920513812 49.505831433703761
-80.219455630239821 126.730756769009432 52.806589772474261
-75.326067410527898 126.685098760339145 52.801924310898031
-70.244958304280104 126.655182777082956 52.202666677223547
-65.345003914184659 126.590542213092888 48.088403109749329
-60.301124678879354 126.277582078279579 41.246887716686004
-55.231322957919232 126.045154524279226 38.075873157498464
-50.205042936224757 125.867098925761937 32.772036988172118
-45.281621686890965 125.472330744309133 23.707815395939818
-40.213063865355657 125.468996668591345 21.935843857209207
-35.216734828743022 125.386539757427968 21.068694905242115
-30.215007706904029 125.205267832701651 18.457335319029593
-25.196911730644118 125.278673962588613 18.582261403857871
-20.264447362294987 125.539201811409200 22.864545923222675
-15.206089666722423 125.719978460448488 27.282173257836732
-10.286615085350679 125.727507491396736 29.971898523632259
-5.226933157385316 125.868872092381608 31.581975177752938
-0.227063988391269 125.893570550549015 31.893116967287973
4.787265396408431 125.877918393942565 31.880860031816411
9.856657215636531 125.843177461520369 30.865393572305255
14.688643350221264 125.805625977132806 28.745682671146554
19.731052995014377 125.580471252809190 24.182402125296964
-92.622569264814061 126.803356630735493 39.240205821314198
-87.469282660410826 127.208996820630517 46.792815129757344
-82.560480970683670 127.508627162407308 51.905501019727836
-77.545357620597613 127.455539001260902 53.147410696217676
-72.529363453087598 127.422564337624067 52.515412460323340
-67.483203975319668 127.362621220815214 49.928083723660862
-62.441537365653446 127.048885445503274 43.148370969980391
-57.595305948487344 126.952693372545667 39.508432442859160
-52.509110056373423 126.741585653020039 34.952348912939009
-47.428208806506163 126.417004340713376 28.359964052108332
-42.461863639793123 126.171144682693111 20.276979018884127
-37.559195123859965 126.177590043919167 20.732584771873661
-32.613893066364653 125.959106370315794 18.448598452723314
-26.884179013548138 125.886121570592138 15.064899232565438
-22.100105035736970 125.973971730325431 19.801173720107666
-17.014042988087311 126.233109720466572 24.428933045003610
-12.026586164250199 126.434024418863004 28.207043349106790
-6.988245158018727 126.532648815806155 30.093008108205993
-2.028246644809059 126.644343847896650 30.916961803575095
3.030187647333170 126.519275611426920 30.777611477008456
7.973191535639406 126.580187392708567 30.280558212126234
13.053135979724905 126.535353501350116 29.021516265687197
17.981217318381663 126.245392692337305 24.447570756358321
-92.774322777191088 127.036261578645764 27.744039883560106
-87.733617106331380 127.890664916298036 46.392885281632253
-82.784125170329617 128.106747088356428 51.752174204149746
-77.820002907240323 128.239778492084582 53.322855099440510
-72.719543802345811 128.053105116111198 52.268340835244700
-67.749478708730180 128.114509210173566 49.686970120655324
-62.750464551476128 127.805708437549200 42.965020134051329
-57.743645539564277 127.685125662883650 39.413784777791179
-52.782043773876367 127.436473392107501 35.041361956406980
-47.805396494599101 127.125897262875711 28.759041838032743
-42.764894058186151 126.803806705523854 18.929585746848989
-37.809973556276432 126.667892617956383 19.034667152809106
-32.817383864098083 126.573489292660128 16.069879027885154
-20.273202508123592 126.898261774052145 19.926506446172631
-15.251465380227465 126.948344297588051 24.847028587381562
-10.230524751473146 127.172005005651272 27.865626754491789
-5.306326856178520 127.305168174989618 29.506495199249429
-0.247557397365383 127.267006371788341 29.792882202193052
4.706837733982689 127.303981985490609 29.253700421247689
9.776453046937656 127.285685918552787 29.148869928129859
14.743639346916655 127.074281738206935 27.134056750994421
19.841228027273612 126.838118066361019 20.632707307197158
-89.546037193095387 128.620462122725030 43.670358932739809
-84.548710858980641 128.757353034918708 50.418829315867264
-79.568646412898701 128.893788472995823 53.109669633561921
-74.527349310247530 128.826566864309939 52.628785579677228
-69.553358140803297 128.777111475529779 50.671221275092236
-64.454518272132034 128.624518513727111 45.265175767407392
-59.481378739616119 128.337111666694426 40.170260192482353
-54.534930041263451 128.231649983622191 36.270505184475113
-49.614041352473137 127.957874328467042 31.286856679025629
-44.512105565259681 127.505128872814268 19.920798878608185
-39.427129788515899 127.458628401658203 16.730658883635869
-20.439125274085129 127.414509287858507 15.470100590044147
-15.387780082092045 127.636786342703914 22.697670203694070
-10.525592767909302 127.770244505809799 26.306097711819209
-5.542821814105345 127.812819775281909 28.249260246461457
-0.539770588571004 127.988560780269253 28.676987727091788
4.391228251302771 127.956724425369373 28.363260997945172
9.411266352590502 127.898865046156828 27.954093747246240
14.516402279211823 127.796714570234656 25.554307858045110
-94.258407556373001 128.313466809188554 21.267007640718159
-89.208767983380412 129.203526891190023 43.741273605606096
-84.275168941022173 129.518332394633177 50.669302106779185
-79.150105643725269 129.680623519561095 53.055907906903258
-74.291111969747178 129.656212286881782 52.534908604828459
-69.281088054575235 129.557799820344286 49.912628607720571
-64.276091167179359 129.210266655950420 44.203224108503541
-59.139961534474153 129.115726512901745 39.652489316303758
-54.162076096118255 128.956166687985359 35.729605716740309
-49.198944039264930 128.709563363167092 30.234218407502972
-44.281407936661587 128.340110875162026 19.691189258470295
-39.231792773041782 128.024187796703131 15.215390527700769
-15.305348162091228 128.211329882709919 20.403469432490816
-10.299829663498743 128.544625643255813 24.992405359619962
-5.269188257977325 128.551515130108641 27.263731273925149
-0.250591159626837 128.698800887123781 27.520405376970459
4.692395893033535 128.589826619211863 27.417081301557875
9.675611226574683 128.579616350628385 26.948410716696742
14.762829949463692 128.344101690996297 22.238961551941479
-92.496057625843818 129.226148346706822 27.102326904446468
-87.523420063874468 130.041338188138496 45.816179357342691
-82.523694325952505 130.237918677181256 51.578227394544314
-77.443635091238136 130.215252991723361 53.095413466936392
-72.490445526285654 130.277323323024092 51.390153844053543
-67.498494351227919 130.103944279630383 48.014871236026934
-62.502043259522665 129.832407066356154 40.834711391900370
-57.557949046065460 129.704065321287004 38.188732835924320
-52.460942661725205 129.541791162475050 33.963912000439350
-47.557155286379803 129.197607433760680 26.958930158639369
-42.552153281436190 128.734371145806449 13.857245409414466
-12.065988088138324 129.053504273341048 22.539840074650115
-7.025178495811553 129.274765807585737 25.700465139292969
-1.928632044423845 129.205755587672655 26.271300401248027
3.016583029773992 129.316248542273541 26.091910367843507
8.069470313991872 129.228312711334979 26.069420699127161
12.930359286932502 129.152204138685420 22.349132209545505
-91.768348821568864 129.992173250402828 27.838418820088659
-86.765953535012670 130.836053068027297 47.579873379956140
-81.797484985021669 130.968169612964516 51.941759642897608
-76.757889024694677 130.961215751277422 52.802501622788050
-71.732548476482592 131.013576350853754 50.877427648323327
-66.756464243527518 130.814411435077176 46.434007811129980
-61.717783097562688 130.527931227017291 39.947239018876239
-56.660596783548556 130.420920621504195 37.315700388832518
-51.706249002543835 130.315626920470891 32.953048211725637
-46.714659853878992 129.896693531035538 24.298841755423773
-41.755748714429764 129.436979157859554 12.092085356044649
-5.660965985770627 129.998939207103234 24.285003612553371
-0.769507690826115 129.949958113775409 25.110555994316318
4.327883736260548 129.914992326464272 25.050549906133202
9.203044465942392 129.877510903530634 23.836190439383010
-93.054374708706248 130.480324718738586 20.754088202649378
-87.951767923385489 131.448690820488906 44.621545145275157
-82.943982210454934 131.636787837802757 50.726121569982674
-78.007372094725014 131.635775135296285 52.883997129726801
-72.995655083333730 131.664119223993623 51.335145287574711
-68.006329984164850 131.436147768595589 47.682810434562811
-62.979807723058421 131.217335087687673 40.567616661506626
-57.910371169787503 131.160731857705088 37.796541836078305
-53.018991375300516 130.904241983006102 33.682708963580438
-48.048733851852511 130.723025739676302 26.873551793654787
-3.010245400997078 130.593101888576342 22.654354119175053
3.013182656807504 130.513211419164463 22.872648571271377
7.983491589398334 130.548363785874272 21.414916909532344
-91.733262967494710 131.401063855744695 26.825029022368806
-86.717787660231551 132.251041622296384 46.854337056634783
-81.834342225584237 132.409126606388099 51.310053626852302
-76.759025319415358 132.400298886044567 52.383074103707507
-71.738031522375849 132.355323191062809 50.262920476628551
-66.749168658006710 132.168881365273364 45.554606585777350
-61.732832764101964 131.853099766081300 39.189616014961338
-56.806204137458437 131.799075993174995 36.521236920627160
-51.696272998965483 131.671131587785112 32.085496915905772
-46.830035339361743 131.303252414535109 23.246854646999306
3.131032074383095 131.079988297121957 16.819868921056390
8.732856657926202 131.156397702376694 18.894176003152111
-88.457295784448306 132.782429157257013 42.663609765505853
-83.472621405676321 133.001927165938639 49.891915588047183
-78.501132805317383 132.975805615588229 52.167429200861982
-73.481003746604188 133.079861773046389 51.077245962099298
-68.506648089607452 132.810942374959069 47.649569066522496
-63.551983659975122 132.633482361581684 40.116771901168697
-58.531855522466401 132.509818602002241 37.312060880859065
-53.514281050492727 132.340921741123594 33.177971255563541
-48.517247177626110 132.076470788675465 25.643545892913824
1.981671884740204 131.865345557386576 16.865522743112461
-90.307783525762844 133.339642113499849 39.101120062213496
-85.162376047761924 133.680710319638678 47.896014655830506
-80.233778534151554 133.707380173635102 51.358560801354720
-75.303096799787355 133.745047911376503 51.556235540605385
-70.303529345916388 133.732504400240373 49.101479607421794
-65.187640062742133 133.361311320058888 41.699445216860809
-60.250483704623825 133.297172929624594 37.668008317009452
-55.239867339122803 133.142734626438966 34.340528602985728
-50.288972361987007 132.930491532108817 29.072844825089501
-90.067965393121142 134.041718609752763 38.857910241426040
-84.963749133047372 134.328766956708904 47.591187534928153
-80.072560465628769 134.505675598688498 51.188378047425921
-75.032442131362174 134.524406577234402 51.278711059380989
-69.931623968888815 134.507754334784863 48.520061309550826
-64.941509618754154 134.134257664130899 41.126689197179488
-60.020028055007543 134.014932872503124 37.249786559687330
-54.949518744772483 133.872183272673254 33.519234997931903
-50.028936632272661 133.565289435410733 27.583749251547104
-89.816662918844486 134.833236735178474 38.915488540171040
-84.816917527387318 135.080347256711008 47.383748889109810
-79.767675544339582 135.260089658251218 50.911371386120265
-74.791839664216610 135.158943725731717 50.851348762155681
-69.743586318783358 135.091263265233948 48.250691669433841
-64.829807406775529 134.982208620765874 40.553869968546181
-59.727430358665515 134.649290975504982 36.453004353466447
-54.686231891756677 134.560174684395292 32.967685468016661
-49.742929722973635 134.358162414142242 26.576218245755548
-89.462585642922761 135.542670094103755 39.245473310060028
-84.449464342756556 135.730322447587895 47.161043188825424
-79.591387811505456 135.913714884671975 50.573984439824933
-74.411146736019504 135.932799987613578 50.414257280345204
-69.541454311845840 135.828114424699066 47.803387001205145
-64.451189486591289 135.609913819971155 40.050578457687685
-59.504036704821850 135.440589610012466 35.774714507666424
-54.594480674357442 135.204366715525026 32.149299936354822
-49.574561641759509 134.971799343247028 24.833890600722157
-88.671616499738889 136.291714227128324 40.128791503169268
-83.792385061495494 136.534107957166583 47.520482314117757
-78.786427566999123 136.623855932672569 50.297717077851523
-73.808469637503023 136.603436322212644 49.696107734941357
-68.776696005742181 136.455540598583923 46.765368044122411
-63.767368745279171 136.145944812338058 38.377368089422589
-58.721831979568776 136.158931519075878 34.770403883586212
-53.765297091090552 135.948215565805157 31.074837344200382
-48.696424841347564 135.541389737603851 19.902044571116058
-87.462447531826811 137.103504963339248 42.443908574272470
-82.517857630104814 137.212232155833959 47.925864150391526
-77.552587003192698 137.357811482753249 49.917100651137915
-72.521433156940660 137.345380201479600 49.048970984679201
-67.520349419672328 137.123017549837726 45.163269855719008
-62.449233121257798 136.878367462680671 36.477325658039206
-57.556731888341368 136.724882807147992 33.345139720661585
-52.477002096123854 136.601287164724624 28.511409899805688
-90.844841192503424 136.902056571060683 20.989298724715649
-85.820242517536755 137.885652155708044 44.368551227464117
-80.754410477022645 137.937673678102300 48.578889333638863
-75.758840622376084 137.931908125418175 49.487324075556707
-70.750960983438418 137.944558312060906 47.831705327074722
-65.727411441794047 137.621610268323991 42.302159655005703
-60.756411804678393 137.524668906117370 34.766215721880734
-55.719647699468943 137.362603223865506 31.507347822230155
-50.795508756474597 137.010259261096110 23.069423981249965
-89.445782021186645 138.349565362061895 37.041472069645799
-84.450807444733286 138.580896144060830 45.226746936622433
-79.423926038736880 138.691204542486560 48.709203947094231
-74.437580708066946 138.775341382110696 48.897354602816293
-69.429268010162190 138.685477939484031 46.717338987695541
-64.432499570611014 138.396965460505555 40.221435899555068
-59.438651703264163 138.153148366731102 33.511676362598337
-54.462952570209737 138.059297898353805 29.799705936675267
-49.500734645755756 137.622394241031714 18.754445938155314
-87.697529499701830 139.143404697869840 40.427199649263059
-82.752289093351195 139.302171243417575 45.948534826731695
-77.735091723035154 139.456720071009755 48.667191710345108
-72.781751967554513 139.425258599678671 48.252792111372081
-67.724422971999829 139.304751810585117 44.895862845310809
-62.782311394430010 138.994442858350283 36.312468658647809
-57.753150992226409 138.898720031120092 32.436296231414680
-52.716806753888228 138.619150530742445 26.277964720699597
-91.136948289045804 139.208159581465907 20.014502908233599
-85.959059577869724 139.942116251004904 42.369638005828428
-80.994186822118053 140.161808510390159 46.839035033049079
-76.008479611419830 140.072675143177946 48.162858604249053
-70.985486354418967 140.071429501252197 46.990295239710285
-66.025553823119708 139.890088907181848 42.404260301548234
-60.942765762350589 139.663007622483292 34.399192785249873
-55.986497041115051 139.580049287815285 31.157945530975507
-51.073497619987698 139.161941010363876 21.181806282996135
-89.253859510534738 140.418547177346568 35.502214327538404
-84.207711805184857 140.710819641844665 43.508826214919544
-79.218894744585086 140.797655250612280 47.101827451515199
-74.197841479813832 140.851914150522390 47.692607256071717
-69.263480361950641 140.695066651036996 45.554514398449257
-64.248328655526194 140.559142425258244 39.474900087638289
-59.257060306007155 140.299870022873847 33.422946905499103
-54.153746544398793 140.321504645056933 28.956395047316352
-49.322194937608955 139.701137062862955 13.794276877083480
-87.461478512659326 141.205340138422400 39.154522290701983
-82.517340538631984 141.289157073598773 44.325269048963563
-77.496214726749159 141.465626632290707 47.212139361420761
-72.466622563698763 141.493818194792482 46.818785254307592
-67.384455613781341 141.372840702928755 44.140385403761059
-62.395526859292843 141.239118258167338 37.023383606595118
-57.531768581235049 140.919925078695769 31.685765525381797
-52.559516625515187 140.640253375775814 21.472808151557178
-90.819071425905321 141.471147052019347 27.187258896934374
-85.764411943646067 142.035454587076288 40.694648208595225
-80.769817320775530 142.146190425636092 44.940994441856581
-75.733072508199669 142.247293876995485 46.781362099867607
-70.683325142003170 142.138298583054791 45.824153444479542
-65.825693288662563 142.019551464703341 41.354943251533562
-60.808935878052608 141.766962095775028 35.956956651163139
-55.764566349795921 141.730300226631726 29.712147915814121
-50.691277595682976 141.277423053073960 18.179679281209189
-89.519741536440392 142.476120660633910 29.098059562008306
-84.414864976756988 142.740813868978364 41.420236753844414
-79.460305728974504 142.856727555315132 45.125780320225260
-74.472894212316845 142.858233703413333 46.392348506697907
-69.494430597776287 142.887357210272654 44.933883967814168
-64.552485441075888 142.767801181857607 39.853387328640871
-59.541990574801808 142.553736178939204 34.921783812671457
-54.430809991112248 142.331505786311681 28.422057224805908
-49.496667485150290 141.842074528451604 11.964307935421761
-87.775821920060352 143.274433643106164 36.124105544116794
-82.701045715760173 143.501594483619328 42.113013579082939
-77.615128713959848 143.591714518530296 45.293038690682245
-72.784500604623872 143.572948360131107 45.451724741281033
-67.719303375672624 143.467363976732912 43.301447908034319
-62.694951955891867 143.335266638356529 37.745076200757175
-57.827291641439508 143.225837453168140 32.480959027109542
-52.755597131969509 143.065321719759197 24.848114213628708
-90.966145998808187 143.717292755602557 26.380424680033940
-86.041774613899904 144.058578640548092 37.961932861508565
-81.069239210351753 144.103661832237236 42.931898257443862
-76.114256794073199 144.404443832681324 45.043864955892616
-71.118917980219720 144.250914801744273 44.542858564500413
-66.038709825449814 144.198743901748514 41.006643184825478
-60.994478535108357 144.111681772966506 36.769345891215792
-55.930327234538801 143.863682425325692 31.123644096764412
-50.971119637387162 143.432015434453120 16.807785696463178
-89.296087875979438 144.537561580898853 29.428000816026138
-84.158510274280658 144.851138674530688 39.238991313509899
-79.264240627342133 144.958329370713528 43.295280707882206
-74.266492179952365 145.002009167291220 44.412653266117402
-69.266486735042321 144.926277642394069 43.182734232763764
-64.338681954072626 144.823168011830887 38.918908342186192
-59.214998211124225 144.749462691215456 35.047321635646533
-54.235248793276917 144.518155814760519 28.815743700633920
-49.197997312407075 143.883927357187702 8.713300773353636
-88.045653103070563 145.389616983104418 32.301785639356318
-83.011452793698567 145.501816643947905 39.503753605470045
-77.973953738418700 145.681635097479329 42.995375487090350
-72.989875794498332 145.726735272883502 43.718456684160508
-68.000919490231098 145.561910799646597 42.216380075171735
-63.008294200827699 145.439642383220701 38.046623032940197
-57.984815348180298 145.460927978489082 32.712158275213902
-52.970880191017166 145.058084738948935 22.972668239310533
-48.066711933731405 144.643022628747843 7.631179651514019
-87.728757612062040 146.100600176782478 32.019537571966708
-82.732367167354553 146.224162737709349 38.858252843899926
-77.708153821013539 146.323222446255613 42.276798068731608
-72.641202077749270 146.343194618246599 43.240935325288049
-67.775551549804945 146.322793470158956 41.554306291398035
-62.753452253766582 146.182548829260554 37.698138160755690
-57.775800767531337 146.073537350342576 32.417047031460839
-52.660155141670344 145.949074723234105 22.355798950561237
-47.799056136063207 145.305785754549134 7.743177822241338
-89.006305854041486 146.691420060412099 28.626808633249194
-84.073488012146910 146.985795261397641 36.924208660119270
-79.055460171113580 147.004662352506074 41.159480438995018
-74.003440452685041 147.017018111580569 42.416174055622335
-68.989796614826460 147.011981407686505 41.567579587300955
-64.019770486063706 146.932859559246737 38.405837334259317
-59.036785474875977 146.931915273719994 35.253828567350816
-54.154948616426971 146.498726074427282 23.703011512206604
-48.947378587402191 146.067779734560673 9.673939663403999
-91.252237772341132 147.179504920484050 23.768803425423261
-86.286511888425878 147.606307141852511 33.064088270792496
-81.295383196954660 147.679759440574685 38.434276830647711
-76.341371892309581 147.816936129931065 41.360174257580887
-71.299606961136476 147.724511495917483 41.613798064159539
-66.219026584465240 147.692281056456210 39.711335157248058
-61.280566747567875 147.708419599814391 37.001170016958135
-56.353556929473314 147.398162239019797 30.592873349985290
-51.313534482704775 147.044162150393788 14.203179591692351
-46.250011757123495 146.808167242896275 7.118096193230993
-89.993885866131691 147.999484527019121 25.799818492109367
-85.084916106128830 148.271910168262821 33.919799012306207
-80.011779464323226 148.280693278551780 38.565530727189369
-74.987851360139899 148.499616504023038 40.838225641814489
-70.044733976523190 148.366287629209722 40.647673634523336
-64.970781859460118 148.315864507879695 38.504430596263084
-60.122911358168025 148.258641561175068 36.132722477223687
-54.954086437748927 148.171217271893255 27.750811916353435
-49.979685989284945 147.620992832644191 11.873722704407800
-44.944075943536681 147.562256575287648 6.551073354025665
-89.713209771474467 148.724364064532608 25.250230670915947
-84.696019741650744 148.939771918825528 33.150364447511492
-79.752847817781330 149.112632486606657 37.819861005928360
-74.694357791016046 149.024555157969246 39.929967407525282
-69.922578955343710 149.044089208421752 39.992707365667101
-64.747515172611955 149.077762792221762 38.002204323937328
-59.691674850823425 149.028591005096189 35.773579186736598
-54.754280895801649 148.753585298621687 27.278487798976542
-49.682533073346413 148.373607399431251 11.630514596165527
-44.750367505535223 148.243552602729949 6.805016600278368
-90.547369410326795 149.460747995699677 22.718891426969947
-85.397634883826996 149.656008730640139 30.951305701715000
-80.455672039818339 149.696309374569665 36.224115873623091
-75.476426368786846 149.752730755457236 38.757032006133656
-70.579651956632404 149.815248435704490 39.290223816508671
-65.481097233727382 149.833429052104066 37.936051453044811
-60.512119896284062 149.801052588248865 36.034900534713948
-55.508824406047118 149.569228945615407 28.791740348200012
-50.503716832190193 149.120127505458555 12.843311259814556
-45.536183307529654 148.971033539183026 7.863241017923874
-40.617249022901603 148.920822355980562 3.055399435029011
-87.738402052465730 150.219997233801934 26.495431813726650
-82.780603744086093 150.334197776864613 33.094263911671220
-77.772113094432513 150.516749078337313 36.987431939575018
-72.781439696925062 150.476645711128953 38.055522914596139
-67.794940301055163 150.483628732903327 38.127299959164667
-62.726701302649907 150.489946239487239 36.531392798931499
-57.747290573482537 150.446547885831933 32.918467278790750
-52.766313985523254 150.113842243774087 19.998226993886764
-47.742218530757654 149.793639259006227 9.942583986333007
-42.799430875806799 149.705168021690241 5.756909375901723
-37.660311685888239 149.589153983435210 0.594765825340270
-85.487303725805887 151.012234484086775 28.611944151579515
-80.493948504723079 151.017747225345829 34.016995094974007
-75.465241585349418 151.174422717671916 36.572088946591954
-70.538811113574951 151.121568101897367 37.356644240984892
-65.432891350520521 151.113068680269379 36.637760545729918
-60.501354618409337 151.088181000997110 35.196347398668074
-55.542247452947898 151.034284355302447 28.841049768125853
-50.493149354683737 150.636645249612286 12.511966053605185
-45.472796940726099 150.494501646454069 8.161160735182090
-40.485817356826182 150.361753705901180 3.885987756839278
-89.324582324680321 151.584587601738122 20.181218905558566
-84.286882359791946 151.751393419232102 28.869086985184072
-79.303158242222295 151.943627611777515 33.588577992941694
-74.300211241509771 151.939972750073252 35.858472355854992
-69.276429077179941 151.887423498951364 36.365440783256936
-64.259041855345629 151.926844558459862 35.860873952375442
-59.268667008894596 151.908895164715290 33.792708884053042
-54.215366580141612 151.612889917711499 26.568245272736661
-49.233899591415849 151.351552349783731 11.094175435906386
-44.230703819371229 151.297632957356313 7.607505772150235
-39.281668044160824 151.153197910966185 3.402533391076492
-88.490610478567874 152.231765942104090 19.295186649882844
-82.949833959552578 152.417054209574331 28.863213329428049
-78.063212869173299 152.537010148358860 33.102637666016101
-73.072433796834261 152.652448035365211 34.934590238376387
-68.039222855412547 152.562699369086744 35.217237054182114
-63.005301176824659 152.527219055529969 34.734873295589033
-58.000278907994876 152.499957353648000 32.267946532141629
