ply
format ascii 1.0
element vertex 832
property double x
property double y
property double z
end_header
-78.708821786164677 75.699518717501078 28.566439138199758
-73.880551380943459 76.317422699063286 35.592430772438803
-68.687262630638870 76.617315436277991 39.115825079238469
-63.742675227017010 76.747929189063711 41.404665172195401
-58.657696893803141 76.966248303822098 42.993812644218238
-53.679295869658098 76.903488999324694 42.840632168352840
-48.763412017112103 76.983501247427967 43.549919764284894
-43.808670857249375 76.921299281562568 42.742777216554302
-38.743875051327706 76.940803209255506 42.799389858980078
-33.711738914712974 76.851317352564081 41.581532943563325
-28.822343844468559 76.966797184996707 43.391995664283527
-23.742160457106753 77.754810197941225 53.213484523810195
-18.772629824678173 77.871619823041229 55.989419421235247
-13.749549967293891 78.030590800993764 56.730280149507706
-8.789009231537865 78.063421251692986 57.762983406290104
-3.752591148334328 78.103333055658766 58.377694204422752
1.264253585165398 77.979329792738199 57.559768752618410
6.335607579302506 77.854811049200322 55.952433961843880
11.329313921323308 77.856229889800005 54.655659851853258
16.317413337753710 77.747690219836826 53.728579094167941
21.244015990504760 77.533672436358643 50.537522412047480
26.153901239015337 77.145148778908677 46.578974430800564
31.270040428922453 76.822908199231378 43.125248297872162
36.170239507823908 76.528832392385155 38.308083958633773
41.215381514774833 75.912023043634321 30.939411680568842
46.133337975010363 74.813627506809354 18.418447139531878
-78.008484041173077 76.640933189277249 30.680501694958313
-73.005695801503947 77.138348849353591 36.856147397797059
-68.091992993494245 77.439163263574073 39.793277105997888
-62.862512996944076 77.565603189470835 41.819415081453421
-58.030429960042348 77.674489680113766 43.362067421549867
-53.085760020149571 77.596790734127907 43.119317515576881
-48.007239159007334 77.715836334192502 43.427647237811918
-43.102251006306105 77.530927026861733 42.931368445047397
-38.018604693580492 77.556539338053796 42.651655112633151
-33.038657009583801 77.436085136103401 41.383958620479945
-27.943585337083150 77.834453130127670 45.121377232561670
-22.990040690314313 78.477855509069769 54.306614081875900
-18.144626352344940 78.655518191110616 56.598757002891162
-12.886052039610469 78.750692694031244 57.115815456678874
-8.002180715980669 78.665625496445927 57.682499589130103
-2.997368101534179 78.797141810498701 58.195371418789506
2.001901618648492 78.718003781745225 56.954418663827688
6.887608351790156 78.554878424201661 55.749309863115670
12.087101289343503 78.496438969377536 54.465846970062366
16.941153009659743 78.525522840033673 53.341527613693813
21.952315174137691 78.216631902119317 50.165495640801723
26.994957383625700 77.853193765280011 46.105918296431526
31.994197735044153 77.619290722616967 42.742765373632395
37.072424349786743 77.104595162793871 37.212854724342613
41.976842381931384 76.435559564771907 28.879050915501917
-81.695549227119869 76.592196345724673 22.626616297390662
-76.764585721063625 77.553925858371926 33.124021251798510
-71.669044772510901 77.881913628898658 38.127236496007953
-66.692400760168681 78.179945141013064 40.940335830991472
-61.766195966499239 78.179973961318154 42.383615580823374
-56.721643617299421 78.435610843462399 43.883544168878970
-51.840100337714304 78.399968115536126 43.571139498917972
-46.794207481238509 78.296872137422369 43.105576233094403
-41.774268322001596 78.293368138594857 43.306905585740459
-36.760031067618698 78.223146695696869 42.432716870288388
-31.747080847483147 78.255047116564896 41.269208309907619
-26.749335953251162 78.723870970000590 48.840738600987954
-21.847474892386586 79.199014862572227 55.529980044541595
-16.690850752002333 79.428092123266197 56.985998398542073
-11.790156326492028 79.420814029866065 57.676879220162846
-6.692813855826024 79.443148291207720 57.670604801927496
-1.783256116265631 79.484703446851228 57.924118965812688
3.293459742525928 79.293847980265056 56.391772194917834
8.234270418293830 79.266907123386886 55.565006667770803
13.251166402914306 79.156233236150442 54.178740075256236
18.273062528941082 79.008665414281239 52.853286574224803
23.355899498371802 78.862448096415150 49.650063326048681
28.278349543848840 78.496092030883688 45.222912899695295
33.294569337230357 78.312084615504759 41.743571498317557
38.248506241694614 77.720314085897158 35.558031591270108
43.235023713259288 77.055725358677492 27.071463735663869
-82.519176040362638 77.357843726379755 22.427437084811871
-77.454388115859999 78.184759146528748 33.101421203819392
-72.556137348893813 78.622296805483501 37.914292533368631
-67.419653166009283 78.922704724197615 40.861056494546588
-62.525380132759295 78.886907395657886 42.440451026925203
-57.479592882172341 79.069770311458669 44.050262798801079
-52.486737393138704 79.141569630695059 43.781069104224116
-47.405948911032858 79.054240448392420 43.700245509142221
-42.481772570187488 78.938483327928537 42.786669687318671
-37.568033655729543 79.072289291467996 42.792495956211489
-32.390580493251449 78.861629418927080 41.217474713035834
-27.446401526580708 79.331147841054374 46.525430121060595
-22.533240132837530 79.941315540728908 55.423347745243944
-17.464605875445127 80.004305960409127 57.401861973302736
-12.557286212827737 80.153070708881472 57.525062265392108
-7.441602579532393 80.069076372714662 57.772400243272720
-2.480334542702899 80.125567646360864 57.748087368630436
2.533800458948732 80.052441374064415 56.775526196401287
7.582785374597436 79.995939620369711 55.378710213960176
12.554000792541197 79.904369972276584 54.198150566196148
17.539795356029213 79.817031866509581 52.978980868197056
22.517907645611174 79.507882283815121 50.012245235697002
27.435836486808860 79.242194331096314 45.842970033520523
32.443786572787843 78.906361534505606 42.229659999122738
37.474593917311893 78.514042611181452 36.606713012873783
42.555095252387950 77.811801355333273 28.196930224960010
-84.244537144779514 77.697679669526920 18.242769881207273
-79.182060263252694 78.869818592463929 31.830779668541041
-74.161697205540548 79.161487545975916 36.905284204663808
-69.203719536998520 79.436508562895355 40.481824892086387
-64.286130910839333 79.641498151891923 42.730702332873605
-59.326657228751820 79.742574550987186 43.424257203021625
-54.236765925178638 79.934047486099203 44.542205514566604
-49.204528352035197 79.792130224974485 44.130003302697858
-44.274864203230322 79.646651126065635 42.157920887005218
-39.327464617504752 79.684054255088952 42.999243103504035
-34.212741525256234 79.598510229509984 41.840747443881313
-29.324517623289694 79.751535825345158 43.782331787869005
-24.250916733804555 80.598904750049272 54.153445891043305
-19.257928799227205 80.848493878554123 57.154947492684691
-14.344859699395215 80.845022000728989 57.061247975680125
-9.262516820628678 80.884478927937735 58.055282053667042
-4.328221130488354 80.802808748683532 57.485111912056887
0.696594202450286 80.771390175599237 57.128078614595196
5.763877294628696 80.758627417097244 55.843539297691976
10.760227518240580 80.555741474558076 54.520849892848808
15.804769016232731 80.489139425536237 53.352654560039753
20.714736006970892 80.241100317135903 50.982029120389122
25.736811108995870 80.104231550288503 47.901066860837481
30.698410626477212 79.859091923424018 43.413034742172158
35.760825883181184 79.348823170457138 38.667705950737499
40.657549437195058 78.812963381622225 32.001117121378925
45.701295937629460 77.989429398241612 21.227377813807756
-81.029108881431625 79.416710455127955 30.364901756908367
-76.037248302946850 79.771139656143148 35.891887421757225
-71.004775461016180 80.194816659415380 39.653796590438326
-65.961665752629614 80.442043466586597 42.521990256238780
-61.018993908483026 80.343072708598001 42.949963335912507
-55.999924779482662 80.610636814976800 44.704494650605852
-50.894730122769225 80.569801461042729 44.090797644642365
-45.937041140092710 80.321378115794772 43.123618807472901
-40.935351940333796 80.467597566376980 42.618651272823222
-35.919503260911547 80.467697202130779 43.010927927782930
-30.927449427768604 80.313681178522842 41.449475785281535
-26.012386664314839 81.094401019188098 51.808282829746254
-20.990798186130771 81.387001263682251 56.260832162089599
-16.003867894627600 81.442935929868625 57.339932826395888
-11.028388713825484 81.554397083770908 57.934032549498156
-5.961994204371760 81.464843335079294 57.206902527802939
-0.992126092062174 81.559169694506309 57.288937501230890
3.868200487431983 81.439960620125859 56.541700681162169
9.015235617593710 81.335976313834280 54.942233946007171
14.088966795121941 81.261955954266455 53.629962753948526
19.048265317219375 81.171818913537450 52.035798506846547
24.028056258464240 80.970981852735761 49.311110273615085
29.060172893036555 80.500856933623510 44.639533626991302
34.056773017844776 80.227048304886623 41.255843702935742
39.025663447341174 79.677634311583759 34.828849249186682
43.903114419604023 79.155285391428663 25.665927461922372
-83.257137326226001 79.785147950719264 26.825841996225108
-78.207538447374702 80.411917064560924 34.160474876170618
-73.230872273162092 80.884474483141275 38.521757879992016
-68.296390461169693 81.014419855844167 41.829269207439012
-63.190613362974936 81.226799921042982 43.540739127015655
-58.233985009428899 81.204963032164329 43.882593599072422
-53.255796329061283 81.266359009995298 44.815289385019703
-48.171712636731073 81.209286940520769 44.040624978653106
-43.285136353004653 81.089119808031768 42.057950324658997
-38.344345552389562 81.077923456170893 43.527020546447105
-33.199517819213924 81.052389935660244 41.635208016449191
-28.241605833072086 81.420043734133387 46.360755024961016
-23.327387098980346 82.029085976670274 55.405449842307227
-18.317335189858564 82.272928609014599 57.780834761077699
-13.253207151166299 82.289291451929302 57.323670525729220
-8.156249221156489 82.309814486763557 57.768024881607516
-3.288262319042474 82.297005057714358 57.380163949773618
1.771952775062433 82.158405536952472 57.120439006241895
6.712127107409452 82.030704421175130 55.911976947478870
11.747839548202903 81.746072024792667 53.728101377279856
16.682056989389274 81.804232590128706 52.529619148495406
21.683316953608418 81.754689939113433 50.433466889133953
26.735780375080722 81.401521430670925 46.583717402127959
31.769158112333319 81.135215486278753 42.861931068793290
36.735396042519326 80.641012906218293 37.285150306704310
41.768049058501617 80.067737623015560 30.074795396230151
-86.010446838770179 79.821175833515284 17.350895058743919
-81.087060204834074 80.905858868647570 31.484714557874277
-76.017348741435399 81.303369632354858 36.652939336357875
-70.967231955677789 81.660909034138214 40.220529187195766
-65.984080236229602 81.851524449251627 43.053897869532271
-60.978693133753261 81.861545681922806 43.477244558475398
-56.071966727882064 81.966964756744133 45.097479055675443
-50.956138229698226 81.939911242506270 44.108313320633897
-46.015401472729998 81.857223003132788 43.514132667993259
-41.060917562244157 81.843667092572119 42.772014833818304
-36.034865711921491 81.869835698170505 43.250214154940366
-30.959750044842533 81.770080208243627 41.692966120378195
-25.987082928245336 82.512682363737099 51.424291486282939
-20.925012949508080 82.790886119784901 56.573013306993410
-16.008346421762649 82.890737933241326 57.116474552758930
-11.049700912406751 82.905026797020369 57.684568944594290
-6.112021030067781 82.873377852339217 56.907831266552293
-0.943731526156057 82.877592808988993 57.373229620930971
3.975817830824718 82.770384740450353 56.950008406712818
9.060796309455197 82.742121772511041 55.245583276279547
13.936368466796919 82.629834396938463 52.955498986899030
18.981298179563325 82.494523663068065 51.447186371828067
23.986627317792227 82.296116563389248 49.095793749414739
28.972275570351187 81.967856404251549 44.257774580149189
33.978642104701933 81.604092452910052 40.889989153186463
38.964816904936406 81.274144152746928 34.770921694973580
44.017124939961832 80.498618592883474 25.859557852534387
-84.149316676078172 81.116552417653764 25.777431333401946
-79.182029633827256 81.838771768646723 34.060937094209521
-74.267812169865167 82.103620607259060 38.390218046266391
-69.268325825341336 82.403058976780599 41.609215485126832
-64.229885129577269 82.703678227182294 44.069606730187040
-59.249389496834446 82.552097341496406 43.619186573672089
-54.188720362512257 82.616059352357766 45.317556473266471
-49.167295222122526 82.590779092379819 44.229934117489606
-44.289839746197856 82.553827473060338 42.751173979212069
-39.291241077127147 82.609046802358620 43.629743988658817
-34.271727931801827 82.520102215681561 42.463147226362572
-29.375992068114268 82.646365276626767 44.833386767162452
-24.307286691178284 83.362930029917891 54.457729273699620
-19.362640545515891 83.600501716427274 57.196939385961947
-14.311265489811287 83.599088221656956 57.010971089762791
-9.250162799645420 83.547974429768004 57.846162651246885
-4.141473814672591 83.725329911342172 57.110399020105376
0.800827043551660 83.629939975024044 57.344426141669160
5.729750036087751 83.623246998569556 56.605619576951057
10.801846415909926 83.354739719698216 54.646897649124647
15.686229520744881 83.254123817133504 52.293838755577390
20.722359634996010 83.157418814964615 50.777122770242535
25.711059328415871 82.878765514507805 47.284958287093239
30.890235431748110 82.559000517715930 43.193844731570451
35.766553996591348 82.200557603389029 38.304102345025314
40.798803768311487 81.560213219893257 32.335162640807454
45.761073390294101 80.781913391686189 20.604347589038628
-82.422459629137848 82.271895059398759 30.035728534251444
-77.532518323649057 82.648235161233032 36.395079153195887
-72.440066645693619 82.883035649936772 39.842788213520514
-67.515005009580747 83.314209042435337 43.042197381040943
-62.518943797051897 83.280804278493463 44.079278182678891
-57.528861586173832 83.273160412128433 44.217843598088329
-52.478913341216007 83.258928891756142 44.802232421289901
-47.525735232832687 83.353872093635999 44.352346336400686
-42.546543472316984 83.247996031045048 42.348635836657678
-37.547981106037462 83.344392639012511 43.798014590321102
-32.516084203821521 83.195836815130662 41.634702886818339
-27.544335645903072 83.604474866176645 48.801465509244380
-22.544923030402046 84.201617436029380 55.725726538932427
-17.584345958371472 84.135116376641406 57.517981865309451
-12.493663968389003 84.358533797516216 57.428311117175724
-7.563856586467664 84.230229989120602 57.269654010504617
-2.450169569661908 84.313691595833873 57.377521885382031
2.545974524415617 84.291686552700256 57.463559581476261
7.410977510950258 84.186781348183061 56.166103778753786
12.523693834746849 83.968014553842224 53.437345586038170
17.526433793193711 83.865332326807561 51.469351311575089
22.502085920508133 83.739630623726001 49.794623361376225
27.425392327204101 83.475320886973236 46.072985297362756
32.499508951163030 83.111385399113715 42.125144097677861
37.469656044524669 82.658668498564936 36.341424572142131
42.571063061443432 82.065286103943507 28.731807917748579
-85.313043519719869 82.226497825743650 21.489818330239949
-80.177150993737413 83.193147594248259 33.557510247362210
-75.273162010640874 83.543591556740282 38.251745272586128
-70.302052864705601 83.821493622232992 41.317568894532151
-65.175705712117207 84.071413328222491 44.152279730999886
-60.127746042685033 83.933897122130716 43.929170673612013
-55.325751568846073 84.051074261743636 45.282063933560117
-50.266333828973380 84.059267107783697 45.157954249708290
-45.205984725629094 83.941407437905298 43.726568410738047
-40.284471334045577 83.882644219491766 43.212883530463969
-35.276038087192134 83.992615943605131 43.313085657807491
-30.206829742209976 83.981057852578317 42.909942236951437
-25.177100652073200 84.689788011920669 52.784053288027017
-20.242114503330924 84.921215925808710 56.745509786070230
-15.201777804320480 84.950156778756579 56.886652819458682
-10.266039213181754 84.988257653440598 57.475589680992854
-5.311315350266889 84.928879902923143 57.094306858986712
-0.234194043010922 85.032628544354793 57.467515079994016
4.698437823009462 84.885942672133041 57.037526401458315
9.727473633815894 84.908748814061980 55.434227742484083
14.800022775851367 84.623450834725062 52.097539617037270
19.751782437083108 84.597022171434233 50.421538300612077
24.672807405647081 84.353541446820913 48.022441661076293
29.690848754568727 83.960933592483698 43.234145091083761
34.748191045600578 83.660827811750323 39.711313547818769
39.726895690964234 83.097920547542444 33.828841420957161
44.740600535359803 82.397777926566633 23.373103641969102
-83.549738544394685 83.708992431968483 28.905945603605385
-78.519016682147551 84.034755512907736 35.989340294001238
-73.495955592616795 84.321328035988941 39.665381675643303
-68.450803691397368 84.541503239606939 42.785544989904757
-63.569346699509126 84.740871352422602 44.283503988282369
-58.462996084274195 84.716612665122909 43.929066838917940
-53.522692936815808 84.832402431925658 45.547236312608121
-48.481504908662906 84.778030403830073 45.146082636780527
-43.527383436394359 84.723097984053197 43.178413292434136
-38.475496729889031 84.654300141604310 43.986068510633338
-33.441758831231517 84.539848430684160 42.171835662645634
-28.349995476245756 84.919161244088187 46.349084170876402
-23.520205159851741 85.539773264891991 54.619618495531554
-18.432238272726345 85.679378679360070 57.128569389323516
-13.533934164846176 85.661684645833404 57.171821728408986
-8.454864260024557 85.695336420086576 57.416085103599315
-3.616054328446392 85.561110192836097 57.262156795238390
1.479715785042926 85.681302409240203 57.213476083221941
6.455947921922652 85.627107754253117 56.467557545277586
11.640532518931559 85.525151960836894 54.417838548625092
16.656776733278424 85.242970418403118 51.360065828990777
21.516817139567767 85.222499365544834 49.856884325526870
26.474774333730505 84.904571576214352 46.978852981008593
31.459508769897724 84.618812117295633 42.830981472590189
36.373443362332146 84.274363814772002 37.422102804470768
41.545622086421325 83.608866360722686 30.847512358466368
-86.270914417333316 83.462085265533645 18.566671675321594
-81.217399618646525 84.458188928967829 32.545094841060376
-76.188229089815181 84.913213297158975 37.975115872281343
-71.309608036940162 85.251823119173082 41.205058470262472
-66.221832399858556 85.486541595661038 44.099651425856727
-61.347227612154775 85.375345492075184 44.304819448954113
-56.229992549727307 85.477611203455822 44.727245035508915
-51.238563030649082 85.478557463479788 45.676032299256853
-46.238442081731350 85.465084481196357 44.510887487767754
-41.169055034521897 85.441454638753981 42.694261572073785
-36.217188154462015 85.477319431745826 43.723883770096286
-31.190310128487674 85.197312116475089 42.676371863690619
-26.247093034908765 86.030782163766929 50.480610818316435
-21.381580072759167 86.331305937434735 55.915299229998269
-16.253512947369849 86.278315710801380 56.897379677880934
-11.210129655356463 86.330663666114248 57.089981605103070
-6.300628346616212 86.310604689709862 56.988422890302658
-1.336986147343324 86.320533337070529 57.000950904520302
3.712937316200100 86.237964013402078 57.008084208809947
8.827633045511950 86.332970644261678 55.815727019964257
13.713762423568330 86.157439387640210 52.681898336943995
18.785417274183636 85.744459810793259 50.297494236563935
23.737337543080390 85.801998516687448 48.313705259920567
28.757927735942843 85.375980761894013 44.315303062475138
33.790063045208854 85.111238463490096 41.240354351522967
38.702990897567894 84.749625187758696 34.965448791757652
43.651109117396892 84.009356613325963 26.480442712396730
-83.949676294487034 84.899360040867890 28.449541567960676
-78.952039667446371 85.455463634252453 35.804306439896543
-74.085616112350436 85.754306836122794 39.784270267972310
-68.948473810827679 85.994964457464931 42.809265627688347
-64.123926782410891 86.173958175417184 44.612658894851663
-59.019579763641381 86.117553245966334 44.444299007881348
-54.006714377824970 86.162828169854677 45.431947280413240
-48.906019142750374 86.232254902605021 45.556945827824208
-44.045587787621976 86.131508044435279 43.433914036931135
-39.009706749528696 85.965148599590592 43.733447779130444
-33.988104353671311 85.995906672953708 42.623724756002261
-29.060717279016483 86.168328043300590 44.923845401176777
-24.081438957813980 86.762787758083846 53.632579584102395
-18.992983702238504 87.054644178175536 56.398594630932195
-13.983501994395708 87.009945792440632 56.922149551354572
-8.914044816220441 87.042002155561079 57.305746393180755
-4.001114900285021 87.030975528614846 57.057341753987934
0.942020747392944 87.060651183589457 56.935915171395941
5.979202179122522 87.000023402349086 56.508811052032904
11.034585773276470 86.858914348737443 54.765988452909241
16.065059763545655 86.639668248691621 51.351114951637129
21.032342630096185 86.542046970709052 49.433459779078511
26.135210313835323 86.230716126288172 47.322510687054667
30.934448658617708 86.017815858043321 43.123886540359344
35.974037091001598 85.677290388866979 38.087394229147286
41.019522920249990 85.017363275578504 31.590644518643487
-86.382842107295275 85.212429440935495 23.694369248742419
-81.262650694211828 86.060357936158354 32.890827432829248
-76.219812676630113 86.453839152106539 38.577012597991256
-71.230427773432154 86.583317241618758 41.593676923922416
-66.268415200745181 86.846444791884210 44.385818152973471
-61.245557511971910 87.046344730512018 45.122195321273715
-56.302067318445253 86.943777152822662 44.850097307864615
-51.319473612121200 86.970268915357650 45.680864385347995
-46.229248795776108 86.803105178244110 44.673704952572315
-41.276111824357528 86.711544251772878 42.692600740844291
-36.263370617856253 86.747875945318071 43.284403119562000
-31.147190142852814 86.698282195342969 43.109699845547823
-26.235760340276698 87.296859715936137 49.965971013182013
-21.321655608302368 87.629975308854000 55.170237559850683
-16.112254696607842 87.722301591738727 56.691308686129993
-11.134023876003958 87.688510660849332 56.662342889713344
-6.251335748992421 87.746238570068826 57.123441780839528
-1.252298490081828 87.796105266278474 56.680961582527416
3.794765752962605 87.664616099945761 56.562112813289161
8.798762218666749 87.621478895582584 55.571134323348112
13.701613246381237 87.363951073975102 53.004654039082006
18.695212250402861 87.216742395817619 49.511101680818228
23.802448513012010 87.078578398618603 48.384789962434418
28.830512433822292 86.836043311296535 43.945781146587294
33.729174752643111 86.555370552761815 41.534389016215904
38.716003324055279 86.088893223962586 34.801331959386587
43.760532506008715 85.406498694518532 25.925701960334948
-85.059641612208551 86.253055177901203 26.928417655593989
-79.868508361094527 86.736095343311121 34.820756248322049
-75.079132938027342 87.123045588806775 39.436102303712602
-70.099736626664296 87.444859617787642 42.236158674893943
-65.028034435979407 87.494334112532101 44.700722850980888
-60.022245503814574 87.599975199955267 45.163278918931788
-55.083257281368418 87.532131791887693 45.051983177908291
-50.010360002232630 87.665657643234738 45.526734493548631
-44.989120762702470 87.660352707831663 43.746957174429717
-39.957281344924986 87.552576954622609 43.143056779500689
-34.933431672869624 87.440183646523565 42.899585129395646
-30.159844905566189 87.486828597442738 43.964879077775329
-24.982837375594137 87.978368355032345 51.944841664081999
-19.990407320500601 88.443440760506618 55.556962596748470
-15.000854460455383 88.425662074581638 56.699562347033385
-10.178624798710397 88.439968701616479 56.895122698268295
-4.966409702088273 88.450520955016771 56.857562802870525
-0.021021531500473 88.414948774222253 56.507092102874005
4.887905800011469 88.369985780230763 56.064368981703694
9.953961005543983 88.157198195979873 54.887762447614634
15.046052131502709 88.138782617942852 52.026540585422346
19.896920145856317 87.902559997925096 49.321459054363068
25.034077172586418 87.858263573943887 47.609313150923924
30.021451031547386 87.408236556109600 43.249472676523986
34.975202175472319 87.127827490127146 39.918093096700915
39.928987981963083 86.737878054687073 32.922292944709277
45.023963293255314 85.898621302974675 22.779780253371911
-83.764901571099415 87.065935503629817 29.370531896164369
-78.630519909468717 87.640860416057777 36.361835812006341
-73.787911901795923 87.982247819211310 40.426680891855014
-68.722481410623800 88.187470607155774 43.012750109474872
-63.736623387878225 88.342869819804164 45.150419836453359
-58.770800980495700 88.386144416144674 44.660247864823212
-53.694525574544613 88.310404368934442 45.026266194575868
-48.630764409126499 88.459077416735298 45.346262611713215
-43.667294349415293 88.150410073100176 42.768057214991174
-38.672825625634204 88.148659176447836 43.669780652910291
-33.747681739109630 88.237535222217886 43.541231805160479
-28.632255897861384 88.392829506032157 45.109082831371509
-23.716522957311458 88.930018534100469 52.886874193508199
-18.702021434641569 88.996081779893885 55.692503811097318
-13.784798358243480 89.100065571475284 56.824585287373573
-8.750968022283740 89.140566471481947 57.015261906557967
-3.799770599096302 89.113424098601229 56.799344082210638
1.252773672510547 89.081510494198156 56.154183222071531
6.318375333744974 88.979190338423209 55.688453177306307
11.177328896386507 88.887605999659911 54.540316074643634
16.263553018229267 88.674019216836811 51.203161277806210
21.152881510455153 88.596217504800777 49.074876276336504
26.276634211829151 88.462879236374206 46.650009211124782
31.174996664715032 88.186578423336357 42.964278132122416
36.245764189776338 87.760022928145077 38.183002674585445
41.288366625064150 87.234610187839380 30.458780560062031
-88.010092057362684 87.154695390658773 20.737001331809303
-82.983568359096182 87.812090455640615 30.475771062817092
-77.981726647796833 88.434664116700517 37.304634525013114
-72.979083227220912 88.746444837069689 40.971850367190534
-68.019291816412078 88.847027008798293 43.477563956756043
-62.983967000035264 89.011592118568785 45.387288804882630
-58.004886320866149 89.039055916044489 44.601873548866969
-53.027743180002822 89.055728238722835 45.225751317191985
-47.995285731728607 88.999600631515321 44.853239511093754
-42.994083104591212 88.747814667205944 42.482114057840079
-38.068136532173369 88.852705421594322 43.493495899112034
-32.930036367985998 88.889019802281467 44.100833849759709
-27.997892536151603 89.096497342381610 46.332869059900759
-23.112699151510398 89.609772822514202 53.031488049486377
-18.030892288594156 89.689741195480806 55.735411434369780
-12.957064965430044 89.716212745524402 56.811931700114208
-8.007337170362504 89.819122868611998 56.987951269874841
-3.107180496175642 89.664770883093979 56.503143925570342
1.968455433695268 89.749783852177401 55.957917761241738
7.001823325759352 89.609417892632223 55.152866911347687
11.911175106848585 89.463370489600706 53.747017400744454
16.930260709093673 89.433398135979004 50.658434197779584
22.059597350755322 89.230303654705068 48.674617674236018
26.940499099120974 89.140162268283930 45.818323555762497
31.980694647663189 88.843907653506491 42.864442175293320
37.032842298737862 88.408821736428465 37.198959481383071
41.972353065357993 87.712718894765402 28.440914909646281
-87.733015525162784 88.085690222470191 22.262742043008156
-82.698849962946866 88.686782262379992 30.894365629429007
-77.731240372046301 89.125445810583059 37.378255011264329
-72.786840213163813 89.399872702592148 41.089099429682769
-67.799602353323678 89.620226408088442 43.480876679011182
-62.661950460628489 89.725389774268166 45.335289286153930
-57.725540270756582 89.734744631997089 44.939796428843195
-52.745174592380764 89.679715736460935 44.868495617777846
-47.790729074532209 89.793148628650229 44.571865638884425
-42.717483403031046 89.579639028509732 42.577442222841533
-37.811284843574775 89.547692828323733 43.523467400685213
-32.697571292809279 89.638807183227698 44.205573244784581
-27.682918460797563 89.828984465854120 46.277449378901821
-22.672409798427882 90.229882736364416 52.893642837168855
-17.692159288541863 90.422981830419005 55.790943926714355
-12.691050681197888 90.424045962871816 56.751220330557736
-7.805435641814051 90.473849580213383 56.931775299488024
-2.703898048601205 90.375264425825534 56.287122058237586
2.120336134496357 90.332076398283604 55.863003264207492
7.218451644161012 90.291769650077768 54.749150725049816
12.199796046748943 90.313922784699429 53.471075370636633
17.340431550404148 89.976180298257589 50.040726395236518
22.229843310400476 89.901541376089796 48.405048575711383
27.206395778130755 89.692059682502531 45.315335558443202
32.307308143125823 89.546826263961748 42.583905595645611
37.304146672134152 89.107070571730233 36.759431080004205
42.204529330298470 88.452599477901131 28.025234941780390
-87.525694935901569 88.885990740305871 23.580177089985114
-82.531021708063861 89.404467348222539 31.318303914696330
-77.532666732469821 89.829635591553583 37.618386459420051
-72.417760451802536 90.135614972261649 41.283238954080517
-67.452696491324616 90.305562812603355 43.315713172683516
-62.450618465461673 90.455375631002084 45.303658292348615
-57.500997796196792 90.451862140447460 45.305756275650118
-52.560486803409930 90.458011034776064 44.762425432659853
-47.500779712029136 90.281703268508906 44.250763803871344
-42.516692951307739 90.210706376060955 42.646247371113660
-37.524051081208462 90.313175220430921 43.646389956432813
-32.498012249720169 90.371099580993558 44.388552909358012
-27.470982400094830 90.583333195864014 46.113853034114904
-22.527169785131200 90.910002076195283 52.633916996844114
-17.470752584188681 91.247919551434180 55.570565227340097
-12.454089271928858 91.149304385382166 56.598356739260296
-7.450239770265767 91.164397190114954 56.648026943424327
-2.578643357173485 91.166357575256910 56.103355295553285
2.486649640800843 91.054030668238155 55.346315434022799
7.529584044874529 90.969993824658658 54.266339593953745
12.499879079274169 90.887305875642426 53.166667625343344
17.514343715616196 90.743199756854324 49.247121186867027
22.579506119599699 90.705606606535824 48.219324965611939
27.514510867573339 90.376393259492701 44.934108808719785
32.515718153767821 90.295482336449311 42.251408030218755
37.552184937823426 89.765172458105852 36.269004244142579
42.448867117192769 89.038314322702604 26.970830028124777
-87.750699808391403 89.573946054918281 23.757440587812059
-82.776591847477931 90.049804537064389 31.004957101071238
-77.758049599810278 90.602196663503875 37.196471293729090
-72.790280538364513 90.819708751472774 41.196312595119693
-67.754622112634820 91.048889352312770 43.166019850490500
-62.766572604879613 91.059143429824402 45.032964943438763
-57.783639458794497 91.166208091741609 45.290627698824864
-52.726192421885315 90.985986893417447 44.542029802634119
-47.655844668470252 91.051599555468087 43.868859579656458
-42.809785998657269 90.895947310344994 42.832662118196076
-37.813703302244825 90.939888009062756 43.791109220306950
-32.747855826593849 91.167434490000801 44.454054832053522
-27.825911089651360 91.182492485078157 45.205607788718659
-22.700291429367283 91.611598641953520 52.029626564259736
-17.684649391682335 91.753346815846015 55.015838709302585
-12.685933675609546 91.860670499462387 56.309702469986924
-7.776083757845527 91.939556706055313 56.364522805652761
-2.689001960351827 91.873129688183965 56.108710496615508
2.192352558426697 91.824115899838660 55.257806491653106
7.223183683521050 91.610155450270611 53.907828988271419
12.278763188277855 91.556622903945396 53.060918275157974
17.227777039523534 91.472572638345355 49.345612372912981
22.236747574346346 91.305966262283732 48.096788558813223
27.348896033969595 91.103591202992433 45.112301300405143
32.333980535734582 90.896791734097278 42.284357146229965
37.261464151045431 90.527817418036761 36.798843489186787
42.262194699404631 89.816053540518553 27.499202335925879
-87.975421868192043 90.211344631949672 23.580072102316830
-83.002213088922204 90.803532368527215 30.787735719960647
-78.032540841951487 91.387219538054509 36.752555592945761
-72.919465406255910 91.582401018928010 41.041668017486401
-68.016418814070633 91.713911080081502 42.665469561963612
-63.024500572643241 91.792056081850177 44.984307344933697
-57.956625712363795 91.891737960622024 45.384028813436956
-52.951531220209517 91.750108843953868 44.309222152189847
-47.964682083357864 91.712426086176478 43.626701666519516
-43.056662626159927 91.548950533816026 42.743326277488535
-37.910233396532924 91.776505805931691 43.680104097389702
-32.979733449623716 91.881366394935696 44.559278124094348
-27.948207672538398 91.795344122569389 44.467252514707646
-22.912666603577549 92.203274100732401 51.197250685614748
-18.035049857239308 92.427804158056830 54.566415110987364
-13.043491580125711 92.478290480083132 56.087110371980664
-8.017506920037020 92.581629796267080 56.055977015270614
-3.022185767001694 92.485445096835093 56.041597360606289
2.008886973247060 92.410240993185269 55.255524513170435
7.071668057342058 92.395666708943580 53.616291666428701
11.906992907498763 92.337598842155444 52.603774463828003
17.082491841383323 92.087374465151939 49.343695861912053
21.946964597269879 92.026404047475680 47.910465330825751
26.963724550688514 91.976337769084367 45.536357238938251
31.924318200604446 91.629684384421779 41.999689199727626
37.047109271347459 91.255158362910990 36.810849357786807
42.060915620920014 90.526177814015753 27.914042278651351
-87.710728114479124 91.022321456852993 24.059541769274148
-82.789857107859945 91.590767273004715 30.984252736907653
-77.817759603330103 91.955791820606223 36.937368322751425
-72.859749168950842 92.276516219017722 41.197824872523469
-67.690755273372162 92.443220118229831 42.534757974343741
-62.831881416017296 92.399461888022884 44.792325850578294
-57.827505793737721 92.492482702063441 45.418751753390801
-52.738879236065742 92.534451455632848 43.969558036702779
-47.681865499864145 92.395979008164872 43.723611012518752
-42.821614764633708 92.454625179897249 42.555532637330458
-37.729033342879681 92.433837656871475 43.806279803246134
-32.801799034937844 92.469374174938821 44.361082377567890
-27.744898653669630 92.458556200278522 44.733847214206847
-22.786559646027538 92.868904055339684 50.731928498260103
-17.766651901826918 93.136813296556895 54.000009227953136
-12.832208848225479 93.210302191437179 55.536217766519641
-7.776522414738236 93.256375815182508 56.043774585291700
-2.778904860232792 93.225639929427544 55.741344669937220
2.205281044762814 93.164309993224805 55.214751056084374
7.251952967267129 93.089465924969033 53.116446319025563
12.243895869446753 93.039949353830963 51.985413760185494
17.310864332951681 92.775274885403604 48.619243160962121
22.210160301512122 92.659321180911576 47.766090542509325
27.269337932296715 92.506639984006625 45.055161133190104
32.191225836032075 92.361616909067649 41.631135845300719
37.245268347986524 91.864249572791465 36.457695627873953
42.326938754592234 91.303163998847410 27.331698178184606
-87.983909152040397 91.748834630389936 23.804425128595224
-83.032825455824963 92.255027635659772 31.033949744693061
-77.932031009286504 92.626858640149962 36.396799796845890
-72.894556974588440 93.086600760249425 40.939695220529337
-67.882398942026185 93.040054456875851 42.232020619152699
-63.044676269512451 93.191904623310293 44.748397584683588
-58.008978380036702 93.215590672706099 45.219551822487773
-52.989394665430915 93.189834962219948 43.996151123971877
-47.984165391986203 93.108983695198603 43.784629033978028
-43.020297044814811 93.070911139872237 42.653010430952278
-37.872820453396351 93.169245655374255 43.583430465376750
-32.956439906398806 93.187225339031315 44.571190964498996
-27.926557592277067 93.243459439835206 44.634912717841964
-22.940314550351129 93.527850877492554 49.185640557462641
-18.041319711194863 93.854648931002885 53.471150953224743
-12.941332560158003 93.947846781854423 55.062092012082296
-8.009334836097169 93.880303720183633 55.431865815099179
-2.914613254496040 93.976727958505450 55.494122172913428
2.021007941897860 93.833106447895361 54.872350583360088
6.972599561151022 93.844325360347511 52.892769079996043
11.933923107512179 93.823975313328219 51.674680946199842
16.915679951769558 93.537981947511426 48.569746248980714
21.903874642522759 93.455367643803257 47.738045437364747
27.017798485175106 93.240713011714973 45.207655747291625
31.987553728029990 93.009553565375072 41.511025686399819
36.995692630666966 92.626038273235949 36.489557115440661
42.022117393489616 92.026842170512708 27.572439987316393
-88.303850102851868 92.528167872402079 23.422221188984729
-83.278576147656779 92.926519906628954 30.756822703852453
-78.220328588181744 93.289309055880892 35.967898854912939
-73.221548269669441 93.680970680644478 40.902279126382247
-68.160428515383586 93.745822415616502 42.443780547736566
-63.142008785364538 93.873643147495386 44.427063418130480
-58.246190573153811 93.898764778122327 45.118695932504977
-53.314432232322204 93.820828556079604 44.073723022827984
-48.230751191979195 93.960704636259365 44.221108534738121
-43.243756249582390 93.726225316247394 42.443807612426909
-38.180504627230192 93.775814194362965 43.392392996920044
-33.206094881072367 93.919858703108162 44.516313866630718
-28.212149469671040 93.933973546181804 45.019554099286246
-23.332833906696198 94.118768359894034 48.587542250520599
-18.288231764187717 94.440141026604422 52.850487192239996
-13.252257772564668 94.542654577273453 54.187328902890172
-8.320846341588732 94.606332468085228 55.099884618391577
-3.253224738457866 94.636631619605026 55.274228504004462
1.753230845149587 94.497973565773478 54.531972603128359
6.802535538784824 94.436667956785698 52.734915728796928
11.712424099248008 94.399844241794924 51.277970869845973
16.822623576103130 94.179680280455003 48.520818526024364
21.643711252366803 94.028813153363288 47.492910322865953
26.674047122145971 94.039390861605924 44.940474082661929
31.783876274206026 93.700012640005028 41.525260669100788
36.746280732252821 93.254639251189516 36.566829844436015
41.631120220627935 92.667630456304934 27.759539917455552
-88.043086183215578 93.148587339478539 24.043361690440157
-82.975474505349624 93.629214511290854 31.079681229077405
-78.052191715725911 94.029785249844878 36.024084422997383
-72.949334514422361 94.431370489510755 40.685759547102244
-68.013505291208034 94.376988139560552 42.346685918054398
-62.998308915396329 94.606559996070544 44.248963007478871
-57.957540529679626 94.553159062271334 44.686867723971318
-52.992715654835287 94.549093643630684 43.878819446697356
-47.981540357933802 94.689867948810900 44.429394104509292
-42.935641935886423 94.408629542558756 42.435027267418711
-37.993724740651132 94.441937215244167 43.537440908822759
-33.032789479599074 94.683063349881337 44.535175484250303
-27.999793810379938 94.750145669869852 45.281297587368002
-22.968670543049559 94.846693678848425 47.788076715889034
-17.920136504591234 95.072101046449475 52.264734559577235
-13.042764455794780 95.192385425522687 53.411212419496785
-8.002000837770412 95.282672118429474 54.690007036906266
-3.025437570744753 95.239717832868237 54.658839779112668
1.948717693426600 95.164500326849350 54.180610320317783
6.951470120768648 95.113681041980271 52.278451320745795
12.029741769226385 95.020099752911619 50.611246619675249
16.980692800440831 94.796658935572523 48.052834917421393
21.997676158655807 94.761343592548428 47.292940050237142
26.973095987736233 94.605046405524519 44.563825232687556
31.924997707262154 94.311704641300423 40.929804535352872
36.992992955971317 94.014773982402644 35.775904260234192
42.024674297619342 93.345395294224730 27.140426677431407
-87.721699080878921 93.860161878728107 24.361552813699184
-82.812767208843127 94.453030422928919 31.592439197285291
-77.829803104807368 94.741851565374716 36.249589901824990
-72.762004847028052 95.058314357935586 40.782101586852079
-67.832707758299392 95.100735708205150 42.197651987525781
-62.885233689067121 95.277004574599573 44.025177088624389
-57.793327471079095 95.349093568701790 44.483522051786693
-52.774571098819038 95.231211823026513 43.802369093129656
-47.798566665825405 95.323652354005176 44.195837604415217
-42.781814461713886 95.086104540482310 42.365270387249346
-37.662342574658815 95.256646452426921 43.307425985784946
-32.781883924265344 95.304205236752537 44.715216537739920
-27.691441768198715 95.365620669658156 45.040544825046020
-22.727384256449039 95.388072902038232 45.639047970938897
-17.809079365336046 95.753946712088066 51.659096880331198
-12.814941984032464 95.828250481056017 52.871372489432034
-7.840029254727868 95.878019496988856 54.175900025908142
-2.849258696991172 95.955702473316094 54.323382208951529
2.234150021590397 95.914103129856656 53.804462281294775
7.194401254219987 95.788117207399182 51.868914032443726
12.200909251096084 95.797971085838313 49.959555506324428
17.179291181097614 95.581984700872894 47.834523706665593
22.320491913122478 95.497949019007621 47.040279970392895
27.216296143789162 95.328498193616085 43.974769971056858
32.256790012311413 94.973395880584391 40.508239264301800
37.243502383365652 94.655733108885030 34.965187351646918
42.228306277567107 94.007381250918087 26.415495071801640
-87.062348438217256 94.597574822162272 25.867287934220201
-81.975630458423538 95.140833366592389 32.460914283880903
-76.978147092521553 95.570057088063564 37.067075423373069
-71.960953589477512 95.816515529761389 41.024621042117040
-66.896494464978574 95.771829817843198 42.157406910508016
-62.075814387898255 95.927265667799645 43.622636104909354
-57.077808669985330 96.019884097161381 43.942705853533781
-52.097288417325807 96.039313378353881 43.982921300546579
-46.963223568430756 95.872751479696959 43.577341377446345
-41.976150863074288 95.850464676292617 42.153132355871904
-36.956438262841907 95.927981167570067 43.379701924192020
-32.038299910068929 95.975752135275286 44.850514423463899
-27.039274276875982 95.990857136592268 43.874971257261656
-21.956368550226752 96.091265693523212 45.440813312814043
-16.985321435782375 96.485859054440240 51.031616676068523
-11.993029173064736 96.457724544304369 52.366464096652471
-6.993107855963158 96.570317550585443 53.710608616078339
-1.944429594608554 96.588266584887691 53.742474738980604
2.940838829416407 96.593341307527339 53.029735658131166
8.033516123622254 96.452720751832416 50.913890537988564
13.006469565359362 96.356682751571711 49.354405074896654
17.948088479119111 96.132673512806448 47.505546390055585
22.917018215128714 96.106599657353712 46.565374591880698
28.031294600308417 95.930985645574097 43.161722916040830
33.090454675437428 95.655990274959322 39.551142247101112
38.135452360289875 95.266478418932806 33.331181894171564
42.906310621790780 94.683904038621534 24.400733439151260
-86.192874491392459 95.536751149543235 26.933258054596447
-81.237895580901210 95.975883238840453 33.099294052221218
-76.203593817949056 96.142795782010438 37.625015179462530
-71.357486817722432 96.524333005207566 41.218130655663408
-66.212753420263596 96.549574262852516 42.128125283633366
-61.362369114348553 96.525977601780895 43.466327794461627
-56.262693982115188 96.667869619468334 43.352734898793187
-51.213687274729054 96.644804764002060 43.996170206301407
-46.271654003015811 96.630619421025457 43.058295687517877
-41.341519873615646 96.621203750061468 42.161736548460937
-36.373782855168230 96.672687898744030 43.207967155193252
-31.254992115050712 96.767657515444213 44.754636147721726
-26.213711747931093 96.675401269326656 43.594264192709630
-21.258760200734351 96.843812033554329 45.105168422502970
-16.262918153567441 97.145986783806450 50.378394075634738
-11.265514228140022 97.223612799944888 51.755413974285126
-6.241833697644519 97.303805337838313 53.195120300547423
-1.191759337636989 97.184180068519652 53.252271115780779
3.687284683019032 97.147511304884532 51.958614757126625
8.777065463917218 96.949419807853943 49.769917173438245
13.679682221859752 96.986564908030090 48.585929917969402
18.735486725890453 97.058090178257260 47.148166924984118
23.743167355788053 96.806184263483246 46.013905511237077
28.717910988870145 96.545607285996695 42.637234092485187
33.782063829719100 96.344663166222247 38.554173730056185
38.718707627727312 95.760966095470820 32.133667241918751
43.664607582725580 94.965421236918360 20.350422773119373
-85.494454174644318 96.377088317048631 27.861602663965076
-80.378907678917216 96.669382810478623 33.843638558501887
-75.492304722004874 96.914656211442022 38.002131062354934
-70.522007867180250 97.190077116054567 41.395439808002081
-65.567127808557885 97.295847107067758 42.082402011583561
-60.505253520783775 97.422731325169678 43.323672653154823
-55.467086754557094 97.310844987026030 43.265672712289394
-50.536399854076841 97.415709381366142 44.071393077349100
-45.566257527091921 97.355987459277912 42.968938273627373
-40.529016291758332 97.330250535805121 42.057065861264455
-35.479502309688009 97.333808229746865 43.334331951638553
-30.363332783831780 97.382725598023285 44.687775752479851
-25.495984743780340 97.451607688532704 44.166933074643630
-20.476783351933825 97.552917641412222 44.929588922433595
-15.468326980778002 97.710675929349975 48.978992717927099
-10.381098383094061 97.932157603740279 51.334895343656918
-5.523958056022268 97.932137138384107 52.373170247835191
-0.537316185031513 97.844307994382831 52.519421413195374
4.498261171442062 97.803586418440474 51.102762118957706
9.452887070568673 97.773477071142736 49.170221278486707
14.601675140430988 97.726572935039002 48.142381152489016
19.518631592699222 97.556983348512503 47.137580617237852
24.656380146275040 97.578238751929746 45.052700459500990
29.549401266916600 97.110874525766661 41.682794506081990
34.408256133197220 96.919321607424877 37.507221529607044
39.592576667902172 96.481886387729332 30.336670603602446
-89.667248712338051 96.229002384227371 16.390049152453340
-84.759785191011844 97.008756971734869 28.965278408796575
-79.831817116645581 97.442069785043074 34.119893058609136
-74.717942823445767 97.755504850836786 38.536808428135366
-69.744513206137796 97.883116150523122 41.331503154026578
-64.785790001357782 97.945070419022983 42.178188219617709
-59.708461606343761 98.006819120327080 42.824054761944154
-54.815313659994082 98.054596333745138 43.134645231306571
-49.763167648244902 97.990019642763727 43.901379867910926
-44.670651546146644 98.027001565076063 42.720699170834564
-39.628078620541892 97.934621388482512 41.925114500194127
-34.710460091310402 98.123953508111796 43.329220470485950
-29.675048400053107 98.192658099258836 44.264444138803754
-24.730118633056740 98.213075171695024 44.695392921518788
-19.730219648611524 98.196661819762269 44.609738966893048
-14.760791893468127 98.322092981743907 48.140174857476879
-9.721128882630950 98.735741848921478 50.985768415615993
-4.762639198834342 98.601536114841593 51.619341383233717
0.272586779975103 98.528584826193622 51.692421917468806
5.269694641703852 98.523266418567616 49.812919953114580
10.366011343302716 98.407518307190884 48.662993680826162
15.256126263348182 98.249520060601711 47.724745374212702
20.248551598494405 98.341316342551920 46.831504102708458
25.262902568341161 98.084103849844993 44.246814455020797
30.247129130904600 97.978199549853116 40.943003916836503
35.348222230054503 97.536700952671652 36.010434741735274
40.207848034747848 97.030753859566460 28.309883913542869
-88.523436451629820 97.310296434414170 22.294841225132338
-83.476713081107860 97.901423236979852 30.118251376572211
-78.517195108704598 98.253378243258922 35.244610398073732
-73.419762395557399 98.512347236116540 39.212656367643561
-68.437345628309600 98.594025422959405 41.454622063232435
-63.467541969736750 98.657852370521212 42.216580818855171
-58.525369180948061 98.720541185473238 42.887330867825924
